ply
format ascii 1.0
comment VCGLIB generated
element vertex 1936
property float x
property float y
property float z
element face 0
property list uchar int vertex_indices
end_header
1.19074 1.5265 1.04989 
1.19173 1.52599 1.04674 
1.19919 1.53126 1.08358 
1.48811 1.61318 1.46776 
1.51318 1.61458 1.44969 
1.51408 1.61401 1.43734 
1.53277 1.61491 1.40002 
1.53705 1.61365 1.39933 
1.54018 1.61595 1.39164 
1.54698 1.61471 1.39459 
1.54474 1.61582 1.38269 
1.55109 1.61514 1.3914 
1.56976 1.61755 1.35026 
1.57641 1.61737 1.33916 
1.58199 1.61654 1.34284 
1.60706 1.62176 1.32635 
1.62352 1.62409 1.32019 
1.63437 1.62505 1.31674 
1.64034 1.62649 1.3161 
1.64492 1.62645 1.3193 
1.65022 1.62425 1.27126 
1.11978 1.54003 1.33363 
1.12338 1.5409 1.32882 
1.12321 1.54102 1.32423 
1.12311 1.53919 1.32738 
1.1253 1.53949 1.31285 
1.12687 1.53957 1.31013 
1.16921 1.52911 1.11624 
1.16899 1.53101 1.11599 
1.19047 1.52847 1.04813 
1.19154 1.52854 1.04554 
1.50322 1.61617 1.45142 
1.53346 1.61618 1.39455 
1.53077 1.61723 1.388 
1.53434 1.61585 1.38067 
1.54209 1.61732 1.38342 
1.54289 1.61661 1.38397 
1.5488 1.61658 1.35576 
1.55322 1.61847 1.37269 
1.56336 1.61798 1.35304 
1.57028 1.6206 1.35063 
1.57111 1.61885 1.3376 
1.57724 1.61924 1.33103 
1.58273 1.6183 1.31558 
1.59877 1.62115 1.32667 
1.60951 1.61977 1.28433 
1.61524 1.62282 1.30745 
1.61638 1.62147 1.2912 
1.64004 1.62932 1.31295 
1.6574 1.63192 1.32344 
1.66252 1.63337 1.32409 
1.65172 1.6264 1.2779 
1.12043 1.54293 1.32961 
1.12304 1.54243 1.31995 
1.1221 1.54343 1.32944 
1.12611 1.54206 1.31425 
1.12457 1.54244 1.31797 
1.12782 1.54168 1.30944 
1.16671 1.53179 1.12093 
1.19043 1.53069 1.04663 
1.18951 1.53055 1.04936 
1.49189 1.61669 1.43264 
1.49309 1.61694 1.42427 
1.49886 1.61622 1.42749 
1.49628 1.61715 1.42517 
1.49852 1.61544 1.41197 
1.52074 1.6184 1.39107 
1.52317 1.61777 1.38426 
1.52457 1.61765 1.37592 
1.52974 1.61748 1.3745 
1.53691 1.61967 1.38037 
1.53859 1.61756 1.36738 
1.5448 1.61884 1.35293 
1.55691 1.62064 1.35242 
1.56039 1.61977 1.34469 
1.56248 1.61988 1.33588 
1.57189 1.62015 1.32871 
1.56965 1.62007 1.31863 
1.57398 1.61972 1.31445 
1.577 1.62176 1.32732 
1.5854 1.62076 1.31293 
1.5854 1.62076 1.31293 
1.5854 1.62076 1.31293 
1.60073 1.62341 1.2948 
1.60275 1.62441 1.30209 
1.60201 1.62167 1.28762 
1.60426 1.62255 1.26896 
1.61628 1.62417 1.28863 
1.61288 1.62279 1.27545 
1.61985 1.62572 1.28657 
1.65683 1.63416 1.31995 
1.66597 1.63055 1.27017 
1.12279 1.54575 1.32639 
1.12062 1.54601 1.32818 
1.12554 1.54451 1.31536 
1.12487 1.54693 1.31639 
1.12409 1.54442 1.31599 
1.12519 1.5451 1.31935 
1.12694 1.5446 1.31545 
1.16909 1.5355 1.11791 
1.17133 1.53491 1.11171 
1.17505 1.53583 1.1019 
1.18862 1.5327 1.05105 
1.18927 1.53269 1.048 
1.45934 1.61821 1.47272 
1.47718 1.62075 1.47674 
1.48114 1.62021 1.46669 
1.48371 1.62135 1.46798 
1.48687 1.61876 1.42521 
1.48687 1.61876 1.42521 
1.48989 1.61921 1.4347 
1.4895 1.61951 1.42244 
1.49268 1.61776 1.40131 
1.49441 1.61837 1.40668 
1.50025 1.61687 1.40634 
1.50865 1.61867 1.38148 
1.51531 1.61985 1.38734 
1.51776 1.61945 1.38883 
1.5197 1.61961 1.38237 
1.51959 1.6204 1.37482 
1.52391 1.61996 1.37048 
1.5391 1.61789 1.34197 
1.53802 1.62004 1.33495 
1.54727 1.6207 1.34235 
1.55088 1.62272 1.34668 
1.55089 1.62274 1.34676 
1.55088 1.62272 1.34668 
1.5562 1.62195 1.35337 
1.56784 1.62207 1.32348 
1.56893 1.62206 1.31275 
1.57337 1.62198 1.30949 
1.57395 1.62229 1.31176 
1.58227 1.62176 1.2988 
1.57964 1.62086 1.27269 
1.58562 1.62353 1.28933 
1.58982 1.62154 1.25235 
1.59533 1.62258 1.2644 
1.59702 1.62308 1.25878 
1.60966 1.62583 1.26613 
1.6141 1.62591 1.26335 
1.62055 1.62848 1.28255 
1.6615 1.63531 1.28514 
1.66731 1.63335 1.26091 
1.12214 1.5484 1.32969 
1.12231 1.54872 1.31971 
1.12309 1.54671 1.31673 
1.12324 1.54898 1.32009 
1.12758 1.54784 1.31637 
1.12598 1.54959 1.31253 
1.17379 1.53838 1.10522 
1.17924 1.53759 1.09832 
1.18694 1.53505 1.05073 
1.18868 1.53517 1.04906 
1.45782 1.61972 1.46265 
1.45782 1.61972 1.46265 
1.47099 1.62101 1.44455 
1.46947 1.61871 1.43274 
1.47587 1.62317 1.46314 
1.48201 1.62074 1.42121 
1.48835 1.61832 1.39519 
1.49418 1.61879 1.40069 
1.49314 1.61988 1.392 
1.50804 1.62097 1.37629 
1.50975 1.62005 1.37544 
1.51117 1.62059 1.37431 
1.51858 1.6208 1.36068 
1.51995 1.61961 1.3598 
1.52461 1.62028 1.34144 
1.5254 1.61889 1.33537 
1.53112 1.62353 1.36546 
1.52969 1.62151 1.34174 
1.53238 1.62034 1.32357 
1.53579 1.61907 1.32698 
1.54255 1.62112 1.33725 
1.54173 1.6223 1.32266 
1.55054 1.62378 1.33173 
1.54899 1.62337 1.3208 
1.55475 1.62202 1.32212 
1.55104 1.62315 1.31889 
1.56088 1.6223 1.31231 
1.56979 1.62501 1.31341 
1.56829 1.62342 1.30305 
1.57997 1.62311 1.27755 
1.5782 1.62263 1.26439 
1.58323 1.62053 1.24722 
1.5875 1.62272 1.24115 
1.59636 1.62518 1.25372 
1.61532 1.62711 1.24998 
1.63714 1.6321 1.26989 
1.64131 1.63184 1.26556 
1.63848 1.63284 1.25317 
1.11791 1.55195 1.33476 
1.12085 1.55115 1.33367 
1.12407 1.54972 1.31551 
1.12392 1.54994 1.31777 
1.12251 1.5498 1.31771 
1.1257 1.55018 1.31749 
1.12588 1.54987 1.31508 
1.16702 1.53962 1.11576 
1.18777 1.53743 1.04973 
1.18568 1.53722 1.05166 
1.479 1.62219 1.42058 
1.48708 1.62071 1.40339 
1.48781 1.62075 1.38975 
1.50778 1.62192 1.36578 
1.51501 1.62294 1.35787 
1.51528 1.62314 1.35925 
1.51485 1.62187 1.35183 
1.51963 1.62317 1.3538 
1.52128 1.62038 1.3319 
1.53134 1.62325 1.34265 
1.53072 1.62116 1.32553 
1.52738 1.62034 1.30185 
1.54489 1.62354 1.31525 
1.54608 1.62437 1.3043 
1.55304 1.62388 1.31057 
1.54996 1.62372 1.29386 
1.56067 1.62351 1.27929 
1.56366 1.62462 1.28653 
1.56532 1.62483 1.27729 
1.56575 1.62484 1.27288 
1.5773 1.62284 1.24558 
1.58232 1.62241 1.2411 
1.62564 1.63186 1.23845 
1.61902 1.6282 1.22323 
1.63294 1.63298 1.24482 
1.67431 1.64059 1.25978 
1.12534 1.55249 1.31171 
1.12474 1.5532 1.31892 
1.12715 1.55263 1.31152 
1.18732 1.53995 1.04969 
1.1879 1.53933 1.04951 
1.20312 1.54655 1.08062 
1.46469 1.62277 1.43466 
1.48505 1.62398 1.4008 
1.4866 1.62278 1.38185 
1.50109 1.62424 1.35563 
1.50191 1.62485 1.35724 
1.50474 1.62341 1.35844 
1.50475 1.62381 1.34368 
1.50978 1.62403 1.35839 
1.51591 1.62321 1.3275 
1.52471 1.62266 1.3036 
1.52749 1.62295 1.29963 
1.52712 1.62212 1.29655 
1.53118 1.62122 1.29291 
1.53748 1.62418 1.29961 
1.54112 1.62328 1.29647 
1.54112 1.62328 1.29647 
1.54175 1.6236 1.28972 
1.54203 1.62391 1.28146 
1.54608 1.62348 1.28636 
1.54882 1.62338 1.26243 
1.55642 1.62533 1.27174 
1.55588 1.62352 1.25882 
1.55871 1.62488 1.26868 
1.60389 1.6262 1.20969 
1.6174 1.63004 1.21621 
1.6166 1.6296 1.2065 
1.61873 1.63073 1.21249 
1.62747 1.63268 1.22377 
1.67413 1.64422 1.25887 
1.67456 1.64506 1.25866 
1.67521 1.64347 1.25467 
1.6734 1.64326 1.24236 
1.12374 1.55621 1.32034 
1.18524 1.54183 1.05277 
1.18661 1.54195 1.05087 
1.42211 1.62519 1.47983 
1.42211 1.62519 1.47983 
1.42741 1.62278 1.44137 
1.4317 1.62278 1.43634 
1.4508 1.62448 1.44387 
1.47534 1.62482 1.38102 
1.47936 1.62611 1.39621 
1.47996 1.62543 1.37944 
1.48371 1.62425 1.38181 
1.47968 1.62417 1.37511 
1.48454 1.62466 1.3785 
1.49257 1.62599 1.35977 
1.4943 1.62473 1.35588 
1.4983 1.62582 1.35257 
1.51098 1.62501 1.32702 
1.51857 1.62548 1.30268 
1.52201 1.62387 1.3034 
1.52018 1.62187 1.29055 
1.5252 1.62347 1.29342 
1.52369 1.62271 1.28023 
1.52823 1.62268 1.27819 
1.53457 1.62447 1.27926 
1.53727 1.62429 1.26611 
1.54242 1.62436 1.25573 
1.5528 1.62602 1.25522 
1.56227 1.62655 1.23969 
1.56946 1.62603 1.23396 
1.57341 1.6265 1.23396 
1.61148 1.62955 1.20587 
1.6152 1.63124 1.19885 
1.62064 1.63152 1.20291 
1.6699 1.64851 1.27568 
1.67411 1.64855 1.27222 
1.67613 1.64896 1.2708 
1.67637 1.64728 1.2632 
1.12681 1.56332 1.33449 
1.17297 1.54642 1.10265 
1.17512 1.54655 1.0997 
1.17844 1.54871 1.09841 
1.42292 1.62403 1.44982 
1.42299 1.62362 1.43612 
1.4221 1.62489 1.43869 
1.42688 1.62493 1.43578 
1.43058 1.6243 1.43065 
1.43514 1.62434 1.42268 
1.46172 1.62683 1.39033 
1.46712 1.62794 1.39085 
1.47018 1.62731 1.38046 
1.47012 1.62735 1.38013 
1.47164 1.62683 1.38102 
1.47483 1.62778 1.37803 
1.47675 1.62665 1.36667 
1.47844 1.62706 1.36113 
1.47845 1.62617 1.36706 
1.48263 1.62661 1.35732 
1.49366 1.62704 1.35089 
1.4948 1.62695 1.34219 
1.49771 1.62794 1.33561 
1.50334 1.62768 1.33213 
1.50497 1.62801 1.32664 
1.51156 1.62531 1.29242 
1.51553 1.62469 1.28884 
1.51825 1.62336 1.28023 
1.51752 1.62429 1.27313 
1.52359 1.62513 1.27725 
1.52534 1.6254 1.27148 
1.52963 1.62617 1.26835 
1.53126 1.62673 1.26345 
1.53411 1.62649 1.25564 
1.53896 1.62623 1.26104 
1.54526 1.62737 1.24957 
1.54518 1.62688 1.2419 
1.56015 1.62727 1.23195 
1.65078 1.64378 1.2423 
1.67344 1.64989 1.27051 
1.67603 1.65197 1.27113 
1.42266 1.62774 1.43752 
1.42642 1.62762 1.43207 
1.42739 1.6256 1.41894 
1.43179 1.62628 1.41644 
1.43662 1.62816 1.41735 
1.462 1.62909 1.39049 
1.45914 1.6274 1.37892 
1.46427 1.62737 1.3707 
1.46913 1.62767 1.3685 
1.47406 1.62955 1.37087 
1.47644 1.62926 1.36352 
1.49127 1.62955 1.35101 
1.49067 1.62787 1.34524 
1.4952 1.62873 1.33094 
1.49343 1.62741 1.32742 
1.4914 1.62754 1.3238 
1.4997 1.62885 1.32784 
1.50709 1.62769 1.30834 
1.50675 1.62647 1.29201 
1.50845 1.62607 1.27708 
1.51263 1.62784 1.29055 
1.51302 1.62581 1.2761 
1.51769 1.6265 1.27356 
1.51908 1.62595 1.27059 
1.52217 1.62698 1.27018 
1.52342 1.62697 1.26249 
1.52917 1.62767 1.25455 
1.53368 1.62719 1.25532 
1.53186 1.62728 1.24433 
1.53678 1.62716 1.24517 
1.53825 1.62561 1.23495 
1.53969 1.62612 1.23229 
1.54194 1.62795 1.23382 
1.54307 1.62751 1.2333 
1.52233 1.6126 1.10984 
1.55965 1.629 1.22629 
1.59436 1.63177 1.18221 
1.18211 1.55289 1.09788 
1.40841 1.62724 1.43504 
1.41811 1.62727 1.43201 
1.4209 1.62748 1.43029 
1.42294 1.62851 1.42659 
1.42272 1.62691 1.41584 
1.42414 1.62608 1.39948 
1.42556 1.62641 1.39907 
1.4287 1.62559 1.39863 
1.43255 1.62854 1.40077 
1.45798 1.63052 1.38843 
1.45817 1.62991 1.38974 
1.46838 1.62986 1.36269 
1.47037 1.62996 1.35171 
1.46887 1.62779 1.32436 
1.47652 1.62871 1.33901 
1.47469 1.62841 1.32822 
1.48104 1.62864 1.31384 
1.48757 1.62864 1.32758 
1.48969 1.62947 1.32383 
1.51418 1.62698 1.25683 
1.51931 1.62874 1.27016 
1.52422 1.62867 1.25915 
1.52491 1.62893 1.25622 
1.52659 1.62734 1.22112 
1.52866 1.62788 1.22943 
1.53237 1.6287 1.23087 
1.53109 1.62816 1.22178 
1.53807 1.62896 1.22374 
1.53975 1.62946 1.21846 
1.54687 1.62951 1.23282 
1.54617 1.6293 1.23062 
1.52336 1.61567 1.11148 
1.59439 1.63398 1.17714 
1.5981 1.63375 1.17914 
1.62756 1.63967 1.18858 
1.65245 1.64737 1.20875 
1.18273 1.55576 1.0991 
1.18162 1.55194 1.05616 
1.18205 1.55134 1.05741 
1.39166 1.63177 1.47342 
1.40814 1.62997 1.43237 
1.4134 1.62971 1.42917 
1.42543 1.62926 1.39738 
1.43235 1.63126 1.39838 
1.45977 1.63001 1.34141 
1.46487 1.62856 1.32649 
1.47782 1.62957 1.31165 
1.48159 1.63189 1.3152 
1.49636 1.62703 1.26735 
1.52502 1.62886 1.21253 
1.53099 1.62808 1.21802 
1.54546 1.63156 1.22593 
1.55448 1.6191 1.07747 
1.59373 1.63653 1.17261 
1.59259 1.63683 1.17297 
1.62574 1.64154 1.18018 
1.18177 1.55971 1.09894 
1.38637 1.62903 1.4185 
1.39906 1.63139 1.42616 
1.39815 1.63054 1.42065 
1.40383 1.63088 1.4308 
1.40795 1.63183 1.40859 
1.41278 1.63235 1.40504 
1.45456 1.63178 1.33981 
1.46263 1.63112 1.33576 
1.47293 1.63191 1.31028 
1.4772 1.63177 1.30662 
1.47228 1.63094 1.29639 
1.47718 1.63169 1.30634 
1.50676 1.63157 1.26436 
1.62483 1.64369 1.17456 
1.65246 1.65013 1.19274 
1.18014 1.56109 1.09968 
1.17887 1.56162 1.0994 
1.18227 1.56127 1.09864 
1.35466 1.6326 1.4801 
1.35466 1.6326 1.4801 
1.39033 1.63003 1.41579 
1.38766 1.6315 1.41519 
1.44142 1.63699 1.37927 
1.44933 1.63318 1.33853 
1.4497 1.63261 1.32817 
1.45195 1.63346 1.32511 
1.45382 1.63397 1.3345 
1.46305 1.63176 1.30907 
1.46424 1.63253 1.30477 
1.47039 1.63268 1.28967 
1.47406 1.63162 1.29142 
1.47853 1.63203 1.28141 
1.48864 1.63351 1.27748 
1.49274 1.63216 1.24476 
1.49475 1.63341 1.25327 
1.49554 1.63178 1.23581 
1.47911 1.61274 1.10517 
1.47857 1.61421 1.09992 
1.48683 1.61396 1.09876 
1.52742 1.62012 1.08532 
1.53968 1.62289 1.0783 
1.58934 1.63894 1.15931 
1.59326 1.63939 1.15518 
1.62597 1.6467 1.16398 
1.63115 1.64699 1.16801 
1.63319 1.64655 1.16835 
1.64859 1.65115 1.18769 
1.1665 1.56215 1.10614 
1.40178 1.63552 1.40335 
1.40763 1.63333 1.37885 
1.41221 1.63295 1.37756 
1.44465 1.63538 1.32517 
1.44465 1.63442 1.33479 
1.44442 1.63427 1.33331 
1.44759 1.63562 1.33152 
1.45126 1.6357 1.31964 
1.46291 1.63486 1.29828 
1.46666 1.63376 1.29395 
1.46978 1.63502 1.28459 
1.48094 1.63419 1.2628 
1.4833 1.63526 1.27185 
1.48436 1.63196 1.24809 
1.48758 1.63389 1.24201 
1.48796 1.63161 1.23685 
1.47489 1.61529 1.0988 
1.48832 1.61663 1.09784 
1.50016 1.61968 1.09122 
1.52776 1.6226 1.08424 
1.53805 1.6249 1.07784 
1.54074 1.62512 1.07755 
1.58961 1.64135 1.15736 
1.59613 1.64182 1.15272 
1.6327 1.64848 1.16371 
1.15017 1.5647 1.1306 
1.17183 1.56402 1.10397 
1.40755 1.63557 1.37547 
1.40952 1.63634 1.37065 
1.43389 1.63513 1.33875 
1.43435 1.63547 1.34117 
1.44832 1.63536 1.3041 
1.45698 1.63635 1.30876 
1.46599 1.63606 1.28864 
1.46548 1.63524 1.27075 
1.47292 1.63609 1.27541 
1.48012 1.63596 1.25628 
1.48047 1.63433 1.24002 
1.46631 1.61657 1.10701 
1.47167 1.61712 1.09822 
1.47555 1.61739 1.09485 
1.4878 1.61904 1.09306 
1.48789 1.61896 1.09285 
1.50113 1.62152 1.08761 
1.51968 1.62453 1.07923 
1.52347 1.6238 1.08215 
1.527 1.62479 1.07908 
1.5346 1.62514 1.07629 
1.53862 1.62726 1.07438 
1.59134 1.64364 1.14646 
1.63588 1.65408 1.16047 
1.63718 1.65395 1.16099 
1.7078 1.68147 1.30003 
1.39089 1.63739 1.39543 
1.40323 1.63634 1.34849 
1.43751 1.63758 1.32715 
1.44255 1.63574 1.29888 
1.44705 1.63667 1.29537 
1.46 1.63446 1.25752 
1.46077 1.63611 1.25354 
1.46362 1.63501 1.24519 
1.47506 1.63539 1.23543 
1.47557 1.63568 1.23768 
1.48023 1.63659 1.23321 
1.484 1.63548 1.22737 
1.48818 1.63593 1.22682 
1.46226 1.61775 1.10186 
1.46565 1.61854 1.1028 
1.48662 1.62084 1.08713 
1.48597 1.6217 1.08427 
1.51231 1.62458 1.08307 
1.51408 1.62521 1.07882 
1.51662 1.62543 1.07737 
1.522 1.62562 1.07714 
1.52665 1.62684 1.07554 
1.53057 1.62822 1.07253 
1.53644 1.62899 1.07084 
1.55446 1.63123 1.06479 
1.56109 1.63254 1.06917 
1.5598 1.6315 1.06371 
1.5987 1.64799 1.14387 
1.64056 1.65569 1.15598 
1.11753 1.58332 1.31938 
1.39049 1.63989 1.39185 
1.39204 1.64093 1.38321 
1.39419 1.6389 1.36406 
1.39925 1.63961 1.36443 
1.42421 1.63664 1.28791 
1.43271 1.64042 1.31959 
1.44114 1.63741 1.29015 
1.44998 1.63758 1.26039 
1.4589 1.63744 1.24291 
1.46282 1.63698 1.23937 
1.46657 1.63625 1.23444 
1.47827 1.63654 1.21479 
1.48248 1.637 1.21843 
1.48449 1.62291 1.08508 
1.49037 1.6236 1.07664 
1.50411 1.62502 1.08021 
1.51127 1.62682 1.07684 
1.50992 1.62693 1.06966 
1.51514 1.628 1.07425 
1.51705 1.62732 1.07365 
1.52487 1.62915 1.0669 
1.52946 1.62942 1.06038 
1.52962 1.63002 1.06663 
1.53287 1.62968 1.06507 
1.5374 1.63015 1.06112 
1.54189 1.63178 1.06197 
1.57081 1.64526 1.13496 
1.55195 1.63306 1.0574 
1.55653 1.63226 1.06155 
1.55611 1.63365 1.05639 
1.56053 1.63432 1.06455 
1.5934 1.64803 1.13915 
1.5965 1.64923 1.13394 
1.59774 1.64949 1.13936 
1.60184 1.64923 1.13879 
1.61309 1.65245 1.14017 
1.61727 1.65213 1.14298 
1.71016 1.68534 1.29365 
1.3895 1.64147 1.36587 
1.41795 1.63759 1.29451 
1.42108 1.63895 1.29277 
1.42842 1.63868 1.28937 
1.42839 1.63991 1.28462 
1.44959 1.63902 1.25204 
1.45316 1.63833 1.24554 
1.46026 1.63852 1.22987 
1.46423 1.63859 1.23223 
1.4613 1.62326 1.09284 
1.47793 1.62308 1.08136 
1.48978 1.62535 1.07196 
1.51195 1.62748 1.06579 
1.51613 1.6295 1.06751 
1.52439 1.63113 1.0633 
1.53034 1.63196 1.05915 
1.53335 1.63154 1.06013 
1.53665 1.6308 1.05911 
1.53687 1.63303 1.05666 
1.54145 1.63364 1.05817 
1.54488 1.63369 1.05528 
1.54809 1.63461 1.05629 
1.56901 1.64671 1.12965 
1.57194 1.64519 1.13171 
1.55149 1.63488 1.05338 
1.55641 1.63588 1.05482 
1.55929 1.6346 1.05684 
1.55904 1.63657 1.0537 
1.58417 1.64931 1.12826 
1.5875 1.64977 1.13061 
1.59747 1.65137 1.13702 
1.38965 1.64202 1.3508 
1.39203 1.64274 1.348 
1.41568 1.63919 1.29505 
1.4685 1.62615 1.08363 
1.47171 1.62533 1.07945 
1.47789 1.62538 1.07945 
1.49351 1.62806 1.06345 
1.51174 1.62962 1.06336 
1.51513 1.63102 1.06122 
1.52026 1.63176 1.06263 
1.52387 1.63311 1.05893 
1.5276 1.63232 1.05891 
1.53329 1.63442 1.05805 
1.53591 1.63374 1.05599 
1.5379 1.63571 1.0578 
1.54474 1.63623 1.05515 
1.54745 1.63643 1.05224 
1.55153 1.63703 1.04978 
1.5559 1.63805 1.0515 
1.5834 1.65047 1.1238 
1.5871 1.65024 1.12858 
1.56818 1.64042 1.05048 
1.57252 1.63995 1.05211 
1.57683 1.64156 1.05121 
1.62927 1.65912 1.13835 
1.63274 1.66126 1.13763 
1.63637 1.66134 1.13972 
1.364 1.64287 1.36162 
1.37189 1.64137 1.34342 
1.42079 1.64136 1.28276 
1.45154 1.62554 1.09918 
1.45749 1.62603 1.0917 
1.46336 1.62628 1.08189 
1.46319 1.62615 1.08108 
1.46319 1.62615 1.08108 
1.46798 1.62805 1.07928 
1.5091 1.63057 1.0508 
1.52328 1.63506 1.05442 
1.5271 1.63431 1.05471 
1.52981 1.63626 1.05155 
1.53207 1.63643 1.05158 
1.53734 1.63552 1.05282 
1.5405 1.6359 1.0524 
1.54256 1.63717 1.04597 
1.54752 1.63819 1.04943 
1.55036 1.63863 1.04582 
1.55142 1.63938 1.04786 
1.55537 1.63985 1.04749 
1.56154 1.6404 1.04314 
1.56511 1.64155 1.04979 
1.56729 1.64221 1.04585 
1.57046 1.64114 1.04687 
1.57321 1.64161 1.04975 
1.11813 1.59577 1.3141 
1.36636 1.64313 1.35392 
1.36414 1.64369 1.34661 
1.40404 1.64315 1.28009 
1.42192 1.6449 1.28386 
1.44254 1.64412 1.2365 
1.44409 1.64095 1.21012 
1.45083 1.64455 1.23627 
1.45124 1.6436 1.22024 
1.43931 1.6267 1.08574 
1.44287 1.62593 1.09278 
1.45816 1.62693 1.07719 
1.50241 1.63236 1.0387 
1.50753 1.63162 1.04242 
1.52245 1.63682 1.04898 
1.52671 1.63673 1.05133 
1.52996 1.63797 1.04695 
1.52921 1.63802 1.04714 
1.53334 1.63675 1.04875 
1.53721 1.63735 1.04731 
1.5394 1.63753 1.04693 
1.54065 1.63779 1.04483 
1.54197 1.63833 1.04408 
1.5502 1.64061 1.04276 
1.55497 1.64171 1.04386 
1.55701 1.64169 1.0398 
1.55877 1.64133 1.03307 
1.56686 1.64424 1.0427 
1.57015 1.64324 1.0441 
1.57146 1.64421 1.04225 
1.57632 1.64417 1.0472 
1.58577 1.64727 1.04688 
1.35908 1.6435 1.34405 
1.35751 1.645 1.33902 
1.36259 1.64515 1.33535 
1.36594 1.64363 1.32734 
1.37508 1.6438 1.30432 
1.37712 1.64445 1.3015 
1.38133 1.64447 1.29925 
1.41265 1.64647 1.27275 
1.43662 1.64519 1.22675 
1.43939 1.64432 1.21957 
1.44227 1.64354 1.21303 
1.43569 1.6284 1.09309 
1.43671 1.6281 1.08482 
1.43865 1.6286 1.08164 
1.44094 1.62862 1.08314 
1.44094 1.62862 1.08314 
1.51997 1.63757 1.03774 
1.52595 1.63801 1.04484 
1.52542 1.63859 1.04503 
1.52917 1.63967 1.04159 
1.52886 1.6394 1.04144 
1.52943 1.6396 1.04153 
1.53259 1.63827 1.04224 
1.53301 1.63863 1.04115 
1.53233 1.6396 1.03633 
1.53693 1.6391 1.04064 
1.53613 1.63883 1.04137 
1.54085 1.63976 1.03769 
1.54638 1.64181 1.04022 
1.55344 1.64281 1.03615 
1.55639 1.64331 1.03516 
1.55572 1.64133 1.01997 
1.57547 1.6459 1.0426 
1.57566 1.64815 1.04038 
1.58021 1.64744 1.04233 
1.71123 1.70092 1.28918 
1.71479 1.70248 1.28964 
1.346 1.64521 1.33496 
1.35595 1.6461 1.32134 
1.35563 1.64572 1.32565 
1.35683 1.64518 1.33484 
1.36057 1.64487 1.3263 
1.39483 1.6453 1.28103 
1.39531 1.64574 1.28388 
1.39791 1.64426 1.25435 
1.41524 1.64832 1.27129 
1.41211 1.64788 1.25759 
1.41608 1.64847 1.26432 
1.41657 1.64766 1.24889 
1.41824 1.64923 1.25749 
1.43868 1.64654 1.21529 
1.43997 1.64436 1.20576 
1.42093 1.62858 1.09599 
1.44453 1.64528 1.204 
1.44303 1.64419 1.19678 
1.42331 1.62981 1.09442 
1.47693 1.63419 1.05398 
1.49755 1.63508 1.03244 
1.50202 1.63627 1.03244 
1.51042 1.63764 1.03188 
1.51572 1.63899 1.03583 
1.51904 1.63907 1.03193 
1.52762 1.64087 1.03386 
1.53277 1.64186 1.03519 
1.5356 1.6404 1.03353 
1.53557 1.64243 1.03072 
1.54013 1.64142 1.0326 
1.54041 1.64286 1.02956 
1.55553 1.64478 1.02966 
1.55694 1.64479 1.02299 
1.5749 1.64981 1.03522 
1.57953 1.64892 1.0373 
1.70461 1.70189 1.28102 
1.7137 1.70391 1.28453 
1.11553 1.60275 1.31335 
1.34455 1.64662 1.324 
1.34548 1.64713 1.32861 
1.35083 1.64753 1.32515 
1.35554 1.64846 1.31767 
1.36009 1.64704 1.32189 
1.37687 1.64782 1.28178 
1.38195 1.64779 1.28603 
1.39059 1.64821 1.27933 
1.39116 1.64471 1.25856 
1.39316 1.64707 1.27063 
1.39037 1.64661 1.2527 
1.3947 1.64533 1.25083 
1.41221 1.63162 1.10505 
1.41382 1.63194 1.1009 
1.43581 1.64667 1.19599 
1.42015 1.63043 1.0913 
1.42186 1.63116 1.0866 
1.42521 1.631 1.08874 
1.44897 1.63194 1.0703 
1.45274 1.63268 1.06529 
1.501 1.6376 1.02634 
1.50487 1.63842 1.0234 
1.50781 1.63828 1.02129 
1.51875 1.64105 1.0299 
1.52259 1.64013 1.02967 
1.52663 1.64191 1.02792 
1.531 1.64281 1.02674 
1.53858 1.64332 1.0273 
1.54691 1.64651 1.03473 
1.54926 1.64738 1.03322 
1.55227 1.64634 1.03512 
1.55207 1.64694 1.02713 
1.55517 1.64652 1.02577 
1.55484 1.64646 1.02534 
1.55623 1.64682 1.02002 
1.55627 1.64666 1.01926 
1.5737 1.6512 1.02869 
1.71391 1.7072 1.27882 
1.11725 1.60547 1.30574 
1.11601 1.60607 1.3101 
1.12249 1.606 1.28921 
1.33961 1.64641 1.32116 
1.35032 1.64927 1.3154 
1.37264 1.64886 1.29021 
1.37562 1.648 1.27788 
1.38137 1.64944 1.27969 
1.3858 1.64977 1.27428 
1.39032 1.64952 1.27029 
1.38973 1.64864 1.24767 
1.39164 1.64647 1.23391 
1.39188 1.64649 1.2345 
1.39872 1.64831 1.24099 
1.40109 1.63005 1.09902 
1.4136 1.63311 1.09248 
1.41708 1.63264 1.08764 
1.4194 1.63348 1.08699 
1.42156 1.63286 1.07685 
1.4244 1.63279 1.08433 
1.42722 1.63242 1.08301 
1.43149 1.6322 1.07414 
1.44112 1.63259 1.06187 
1.44023 1.63328 1.05532 
1.46698 1.6361 1.03922 
1.49615 1.63726 1.01746 
1.49948 1.63868 1.01811 
1.5034 1.6389 1.01805 
1.51018 1.6389 1.01728 
1.50663 1.6375 0.999358 
1.51254 1.63967 1.013 
1.51783 1.64263 1.02412 
1.55581 1.64939 1.01909 
1.7027 1.70645 1.26559 
1.70669 1.70615 1.26953 
1.70947 1.7064 1.27571 
1.70997 1.70815 1.26941 
1.32032 1.64719 1.31463 
1.3253 1.64689 1.31429 
1.32987 1.6469 1.31371 
1.33295 1.6467 1.30955 
1.35487 1.64994 1.29726 
1.35689 1.64745 1.27934 
1.36271 1.64955 1.28484 
1.37115 1.65001 1.27097 
1.37626 1.65053 1.2777 
1.38091 1.65167 1.27214 
1.38519 1.65174 1.2684 
1.38454 1.6494 1.2448 
1.39123 1.64885 1.23011 
1.41367 1.63482 1.08484 
1.41746 1.63511 1.08108 
1.42469 1.63375 1.07511 
1.42606 1.63407 1.07029 
1.42994 1.63445 1.06725 
1.42919 1.63481 1.06688 
1.45764 1.6369 1.03697 
1.52441 1.64384 0.999909 
1.70291 1.70846 1.26433 
1.70652 1.70796 1.26721 
1.70957 1.71033 1.26645 
1.12023 1.61133 1.28604 
1.32293 1.64863 1.31506 
1.32482 1.64977 1.31143 
1.33285 1.65038 1.29862 
1.34589 1.65216 1.29689 
1.34958 1.6531 1.29545 
1.35645 1.6501 1.2747 
1.36092 1.65067 1.27179 
1.36532 1.65122 1.26868 
1.36927 1.65134 1.26282 
1.37313 1.65083 1.26445 
1.37956 1.65299 1.26233 
1.38191 1.65134 1.24734 
1.40926 1.63655 1.08355 
1.41298 1.63647 1.0796 
1.42202 1.63578 1.07084 
1.42504 1.63545 1.06352 
1.43884 1.63542 1.04756 
1.4409 1.636 1.03498 
1.45817 1.63619 1.02709 
1.52378 1.64538 0.995203 
1.12023 1.61134 1.28588 
1.12555 1.61341 1.27886 
1.32091 1.65389 1.31636 
1.32665 1.65141 1.30897 
1.32799 1.6516 1.2984 
1.32905 1.65113 1.30186 
1.33042 1.65297 1.29585 
1.33294 1.65326 1.29876 
1.33444 1.64973 1.27776 
1.33822 1.65106 1.27691 
1.33978 1.65279 1.28786 
1.34541 1.65307 1.29006 
1.34333 1.65383 1.2852 
1.36023 1.65263 1.2663 
1.35583 1.65103 1.24916 
1.3597 1.6499 1.24962 
1.36879 1.65361 1.25879 
1.37425 1.65426 1.25703 
1.37466 1.65286 1.24121 
1.37687 1.65287 1.24374 
1.3781 1.65313 1.2497 
1.40249 1.63724 1.08678 
1.40127 1.63682 1.09014 
1.51727 1.64562 0.986228 
1.52356 1.64681 0.988329 
1.11976 1.61433 1.28151 
1.11976 1.61433 1.28154 
1.11857 1.61379 1.28294 
1.11857 1.61379 1.28294 
1.31848 1.65185 1.29139 
1.32513 1.65258 1.29718 
1.34476 1.65519 1.28511 
1.37327 1.65351 1.22605 
1.41481 1.63766 1.054 
1.41754 1.63687 1.04626 
1.70949 1.7175 1.26627 
1.71064 1.71834 1.27007 
1.32142 1.65273 1.28268 
1.32308 1.65301 1.27886 
1.33154 1.65371 1.27389 
1.3349 1.65444 1.27044 
1.33565 1.65251 1.25621 
1.33979 1.65407 1.2524 
1.36382 1.65626 1.23811 
1.4036 1.63879 1.05741 
1.41682 1.63809 1.04111 
1.41671 1.63803 1.04063 
1.42061 1.63812 1.03827 
1.41967 1.63948 1.03187 
1.51809 1.64807 0.968369 
1.5346 1.65154 0.970317 
1.14082 1.60418 1.12247 
1.14203 1.60348 1.11746 
1.14239 1.60213 1.12297 
1.14363 1.60214 1.11894 
1.32879 1.65596 1.27033 
1.33142 1.65414 1.25513 
1.33502 1.65452 1.25119 
1.36061 1.6588 1.24915 
1.35922 1.6573 1.23614 
1.36312 1.65812 1.23259 
1.36577 1.65598 1.21469 
1.36868 1.65596 1.20935 
1.40212 1.6394 1.04871 
1.40599 1.63896 1.04271 
1.41227 1.63957 1.03847 
1.41227 1.63952 1.0385 
1.41944 1.63939 1.03081 
1.45319 1.6421 0.994506 
1.50405 1.65941 1.05804 
1.50557 1.66032 1.05445 
1.50913 1.66012 1.05722 
1.53328 1.65165 0.967928 
1.14056 1.60585 1.11915 
1.14187 1.60618 1.1215 
1.1418 1.60573 1.11921 
1.32229 1.65766 1.27195 
1.35842 1.65902 1.2298 
1.36045 1.65362 1.18695 
1.40057 1.64029 1.03946 
1.48235 1.65939 1.06761 
1.48382 1.65884 1.06532 
1.50241 1.66138 1.06382 
1.49857 1.66094 1.05014 
1.50437 1.66208 1.04974 
1.50557 1.66057 1.05181 
1.11684 1.62642 1.27572 
1.13889 1.60805 1.1244 
1.35361 1.65609 1.19539 
1.3579 1.65686 1.18607 
1.35944 1.65652 1.18401 
1.4545 1.65829 1.07373 
1.47922 1.6604 1.05263 
1.51105 1.66311 1.03659 
1.33186 1.65978 1.22744 
1.35955 1.65731 1.18111 
1.45319 1.6597 1.06661 
1.46896 1.64951 0.97136 
1.31312 1.6579 1.21087 
1.33529 1.65969 1.20297 
1.33556 1.65927 1.1998 
1.35272 1.66063 1.18819 
1.36073 1.66179 1.17647 
1.36189 1.65987 1.17512 
1.36408 1.65937 1.16956 
1.40486 1.66048 1.11008 
1.43049 1.6595 1.07759 
1.43044 1.65981 1.0789 
1.43798 1.66016 1.0725 
1.44098 1.66117 1.07134 
1.44505 1.65836 1.05757 
1.44759 1.6569 1.04747 
1.44646 1.65825 1.04092 
1.45448 1.65959 1.05392 
1.4662 1.65134 0.967053 
1.46787 1.64945 0.955571 
1.58183 1.68087 1.03826 
1.3092 1.65939 1.20498 
1.31262 1.66017 1.20654 
1.32 1.66335 1.22291 
1.32956 1.6619 1.21092 
1.33393 1.66227 1.2093 
1.33276 1.66009 1.19728 
1.34718 1.66622 1.20531 
1.34902 1.66339 1.19052 
1.36252 1.66232 1.17253 
1.36344 1.65866 1.14359 
1.3652 1.65922 1.14659 
1.40205 1.66125 1.11256 
1.40532 1.66074 1.10936 
1.40532 1.66074 1.10936 
1.4093 1.66116 1.10673 
1.43425 1.65978 1.0633 
1.44347 1.65848 1.04357 
1.44358 1.65856 1.044 
1.44702 1.66126 1.05862 
1.44624 1.66021 1.03789 
1.4766 1.66282 1.02587 
1.46477 1.65112 0.954007 
1.49006 1.6657 1.02984 
1.49261 1.66616 1.02737 
1.30999 1.66113 1.20189 
1.31586 1.66244 1.20864 
1.36858 1.66189 1.1311 
1.36843 1.66174 1.13025 
1.36843 1.66174 1.13025 
1.36878 1.66271 1.13408 
1.3712 1.66177 1.13097 
1.3928 1.66002 1.08505 
1.40198 1.6605 1.08785 
1.44231 1.66126 1.04236 
1.4764 1.66567 1.02209 
1.47651 1.66428 1.02403 
1.46386 1.65336 0.957932 
1.12746 1.62002 1.13266 
1.3056 1.66208 1.19712 
1.30858 1.66151 1.19984 
1.3126 1.66257 1.20064 
1.32673 1.66302 1.18493 
1.33556 1.66741 1.19381 
1.36137 1.66192 1.11956 
1.3673 1.66235 1.12289 
1.36716 1.6622 1.12205 
1.36716 1.6622 1.12205 
1.36716 1.6622 1.12205 
1.38994 1.66119 1.0842 
1.1272 1.62392 1.13493 
1.12724 1.62388 1.13476 
1.12643 1.62296 1.13481 
1.13031 1.62508 1.13666 
1.13552 1.62428 1.13308 
1.1364 1.62496 1.13326 
1.13781 1.62448 1.13176 
1.13674 1.62361 1.13321 
1.13908 1.62363 1.1312 
1.30916 1.66477 1.18999 
1.33127 1.66784 1.18706 
1.33339 1.66761 1.19036 
1.37768 1.66322 1.09581 
1.37947 1.664 1.09322 
1.39844 1.66323 1.0676 
1.39811 1.66296 1.06944 
1.41459 1.66353 1.04717 
1.48416 1.66934 1.0139 
1.124 1.6247 1.1351 
1.1266 1.62521 1.13421 
1.12643 1.62563 1.13663 
1.13272 1.62687 1.14105 
1.13495 1.62695 1.13648 
1.13465 1.62821 1.13969 
1.13644 1.62733 1.13447 
1.31072 1.66758 1.18933 
1.30627 1.66323 1.15922 
1.31257 1.66662 1.19018 
1.31746 1.66659 1.18494 
1.31711 1.66679 1.1835 
1.31623 1.66625 1.16967 
1.32725 1.66549 1.15902 
1.33135 1.66721 1.1564 
1.38134 1.66445 1.09009 
1.3813 1.66319 1.07702 
1.40998 1.66423 1.04511 
1.41379 1.66486 1.04172 
1.44192 1.66759 1.03363 
1.56919 1.68913 1.02489 
1.13813 1.63012 1.13285 
1.30208 1.66326 1.15836 
1.30574 1.6652 1.15489 
1.30391 1.66429 1.15897 
1.31071 1.66499 1.16367 
1.32647 1.66712 1.15297 
1.3304 1.66886 1.15022 
1.33995 1.66085 1.08648 
1.34688 1.66386 1.10418 
1.40938 1.66583 1.04055 
1.41674 1.6663 1.03518 
1.46884 1.67258 1.01276 
1.50885 1.67889 1.00925 
1.6081 1.70215 1.04357 
1.30066 1.66428 1.15308 
1.3113 1.6679 1.16235 
1.32014 1.66771 1.1385 
1.32542 1.66842 1.14509 
1.32558 1.66862 1.14635 
1.32924 1.66987 1.14088 
1.39409 1.6663 1.04697 
1.4593 1.6733 1.01061 
1.51383 1.68292 1.00846 
1.51622 1.68354 1.00788 
1.54346 1.68709 1.01294 
1.1852 1.67518 1.33178 
1.31632 1.66893 1.13768 
1.32335 1.66824 1.13455 
1.3244 1.66938 1.13676 
1.39333 1.66798 1.04332 
1.41369 1.66902 1.03263 
1.32256 1.66974 1.12847 
1.35076 1.66805 1.07563 
1.38535 1.66973 1.04387 
1.39039 1.66881 1.04221 
1.39272 1.66985 1.04067 
1.47958 1.68122 1.00459 
1.33147 1.66892 1.08307 
1.38222 1.67116 1.04336 
1.39206 1.67168 1.03812 
1.40924 1.67286 1.02844 
1.40724 1.67443 1.02848 
1.4109 1.67298 1.02899 
1.44916 1.67756 1.01049 
1.15521 1.67606 1.32153 
1.18591 1.68221 1.33051 
1.18577 1.68157 1.32672 
1.31766 1.66761 1.08356 
1.31968 1.66882 1.08311 
1.3842 1.67333 1.03865 
1.3895 1.67285 1.03769 
1.39563 1.67464 1.03167 
1.39957 1.674 1.03041 
1.40187 1.67502 1.02928 
1.44102 1.67854 1.01195 
1.18429 1.68591 1.33263 
1.3172 1.66947 1.07968 
1.31702 1.66934 1.07915 
1.31997 1.67049 1.07705 
1.34569 1.67223 1.06628 
1.38642 1.67618 1.03501 
1.39118 1.67554 1.03376 
1.39765 1.67767 1.02851 
1.56616 1.70406 1.00666 
1.13602 1.67905 1.32688 
1.31291 1.6715 1.07845 
1.31647 1.67127 1.07477 
1.31668 1.67129 1.07548 
1.31885 1.67174 1.07322 
1.33518 1.67331 1.06339 
1.3356 1.67306 1.06485 
1.39303 1.67804 1.02968 
1.40626 1.68066 1.02266 
1.40878 1.67935 1.02285 
1.43663 1.68358 1.011 
1.50388 1.69308 0.993687 
1.5591 1.70605 1.00507 
1.5615 1.70592 1.00543 
1.56612 1.70625 1.00582 
1.15628 1.68407 1.32034 
1.17495 1.68719 1.31371 
1.31623 1.67357 1.07242 
1.34423 1.67635 1.05257 
1.34423 1.67635 1.05257 
1.34734 1.67492 1.04819 
1.36303 1.67768 1.0398 
1.37673 1.67829 1.03533 
1.40043 1.68065 1.02573 
1.40272 1.68243 1.0237 
1.45018 1.6874 1.00364 
1.4616 1.68951 1.00165 
1.57516 1.71047 1.00861 
1.13416 1.68594 1.32991 
1.32157 1.67675 1.06559 
1.4004 1.68337 1.02338 
1.40471 1.68423 1.01911 
1.45928 1.68978 1.00086 
1.46113 1.69052 0.999073 
1.56207 1.70968 1.00123 
1.15079 1.69706 1.36638 
1.15538 1.68927 1.31793 
1.32116 1.67867 1.06254 
1.40523 1.68666 1.01916 
1.44298 1.69075 1.00896 
1.45015 1.69101 1.00361 
1.562 1.71169 1.00022 
1.56651 1.71424 1.00319 
1.57018 1.71408 1.00584 
1.15268 1.70031 1.36842 
1.15059 1.70098 1.36329 
1.15282 1.70165 1.36522 
1.24027 1.67933 1.14366 
1.29225 1.67928 1.0812 
1.34054 1.68061 1.04527 
1.38216 1.68775 1.02971 
1.40378 1.68912 1.01876 
1.44779 1.69429 1.0019 
1.45006 1.69335 1.00269 
1.56183 1.71442 1.0001 
1.66119 1.75784 1.14296 
1.6642 1.75655 1.14187 
1.15033 1.70218 1.36507 
1.1524 1.70602 1.3683 
1.3073 1.68203 1.06193 
1.36259 1.68743 1.03399 
1.3649 1.68646 1.03433 
1.36838 1.6876 1.03087 
1.42507 1.69437 1.0105 
1.42915 1.69315 1.00701 
1.44804 1.69658 1.00098 
1.238 1.68279 1.12985 
1.28609 1.68197 1.08027 
1.36642 1.68889 1.03115 
1.38082 1.69052 1.02713 
1.40021 1.69279 1.0198 
1.40218 1.69375 1.0179 
1.40586 1.6939 1.01376 
1.42308 1.69544 1.01006 
1.43467 1.69872 1.00903 
1.44785 1.69915 1.00162 
1.66037 1.76013 1.13238 
1.66037 1.76013 1.13238 
1.22029 1.68417 1.1483 
1.22332 1.68513 1.14455 
1.24771 1.68394 1.11727 
1.27925 1.68465 1.08194 
1.28237 1.68435 1.07939 
1.28571 1.68504 1.07529 
1.30355 1.68432 1.06299 
1.42792 1.69883 1.00838 
1.4294 1.69951 1.00622 
1.54235 1.71825 0.992672 
1.54256 1.71665 0.994741 
1.13455 1.70259 1.31654 
1.21928 1.68668 1.14436 
1.22101 1.68569 1.14249 
1.27585 1.68698 1.08157 
1.30487 1.68828 1.05609 
1.33464 1.68999 1.04087 
1.36157 1.69226 1.03044 
1.37451 1.69385 1.02378 
1.41224 1.6987 1.01093 
1.41453 1.6993 1.01021 
1.42565 1.69992 1.00861 
1.4278 1.70162 1.00732 
1.54213 1.72042 0.991608 
1.54413 1.71896 0.991295 
1.58039 1.72972 1.00859 
1.13825 1.70926 1.33856 
1.13815 1.70888 1.34258 
1.23005 1.68899 1.12332 
1.25334 1.68857 1.0982 
1.30071 1.68924 1.05847 
1.30278 1.68996 1.05652 
1.32304 1.68997 1.0452 
1.33143 1.69106 1.04078 
1.35702 1.69483 1.02939 
1.41205 1.70031 1.0084 
1.42154 1.70296 1.00753 
1.42572 1.70245 1.00574 
1.4278 1.70366 1.00625 
1.43165 1.70464 1.0077 
1.54397 1.72106 0.989866 
1.57693 1.73148 1.0046 
1.14055 1.71168 1.33363 
1.13875 1.71238 1.33842 
1.22966 1.69072 1.11957 
1.26333 1.6897 1.09008 
1.28003 1.69034 1.07301 
1.29266 1.69039 1.06434 
1.2977 1.69149 1.05961 
1.30165 1.69108 1.05682 
1.31418 1.69359 1.04752 
1.31447 1.69288 1.04745 
1.32396 1.69274 1.04343 
1.35669 1.6981 1.02964 
1.14002 1.71386 1.33349 
1.13977 1.71416 1.33561 
1.21122 1.69264 1.14176 
1.22467 1.69262 1.12325 
1.23206 1.69107 1.11744 
1.23428 1.69156 1.11383 
1.23693 1.69114 1.11063 
1.25141 1.69294 1.09608 
1.25433 1.69293 1.09205 
1.25996 1.69166 1.08902 
1.26226 1.6922 1.08647 
1.27214 1.69172 1.07808 
1.27418 1.6922 1.07714 
1.27646 1.69222 1.07444 
1.27978 1.69253 1.07042 
1.29447 1.69412 1.06197 
1.30587 1.69482 1.05036 
1.31005 1.69452 1.04923 
1.32766 1.69669 1.03931 
1.33059 1.69664 1.03888 
1.34017 1.69698 1.0366 
1.35648 1.7005 1.02827 
1.35914 1.69882 1.0287 
1.40786 1.70709 1.01242 
1.41533 1.70769 1.01063 
1.41744 1.70824 1.00898 
1.43331 1.70878 1.00484 
1.44497 1.71027 1.00204 
1.57629 1.73486 1.00368 
1.13631 1.71393 1.31672 
1.21801 1.69516 1.12649 
1.22083 1.69483 1.12374 
1.22631 1.69323 1.11839 
1.23671 1.69365 1.1091 
1.24793 1.69503 1.09653 
1.25656 1.6935 1.08996 
1.25914 1.69364 1.08727 
1.27394 1.69465 1.07637 
1.27628 1.69464 1.07297 
1.27713 1.69572 1.06965 
1.29484 1.69587 1.05773 
1.29711 1.69652 1.05644 
1.29833 1.69707 1.05433 
1.32582 1.69836 1.04052 
1.32966 1.69905 1.03903 
1.36181 1.70307 1.02729 
1.41061 1.70919 1.01173 
1.44404 1.71362 1.00208 
1.22539 1.69546 1.11584 
1.23109 1.69589 1.11085 
1.23621 1.69597 1.10524 
1.24951 1.69577 1.09284 
1.25193 1.69667 1.09085 
1.25604 1.6962 1.08405 
1.2739 1.69626 1.07224 
1.27942 1.69607 1.06762 
1.30507 1.69883 1.05017 
1.31609 1.69949 1.04494 
1.36338 1.70371 1.02409 
1.37537 1.70679 1.02373 
1.38429 1.70682 1.01893 
1.38282 1.7088 1.01908 
1.40736 1.71014 1.00927 
1.52067 1.72755 0.992253 
1.14092 1.72454 1.33347 
1.17343 1.74278 1.40696 
1.1776 1.71664 1.25622 
1.18034 1.71518 1.24439 
1.20184 1.7004 1.14338 
1.20492 1.69923 1.13935 
1.21683 1.69879 1.12167 
1.21966 1.69818 1.11831 
1.22513 1.69779 1.11366 
1.26478 1.69805 1.07688 
1.26925 1.70009 1.07227 
1.27367 1.69845 1.07013 
1.27585 1.69915 1.06838 
1.27732 1.69995 1.06761 
1.27928 1.69831 1.06603 
1.27905 1.70033 1.06376 
1.33603 1.70477 1.03551 
1.38498 1.71219 1.02445 
1.45206 1.71868 0.999894 
1.15315 1.72851 1.32603 
1.17233 1.74597 1.40658 
1.17481 1.74587 1.40982 
1.17846 1.74939 1.41393 
1.17816 1.71678 1.24449 
1.20229 1.70221 1.1396 
1.20452 1.70142 1.13607 
1.21849 1.70105 1.11801 
1.22462 1.70088 1.11026 
1.26528 1.70106 1.07489 
1.26928 1.70027 1.07233 
1.2713 1.70098 1.0706 
1.2734 1.70148 1.06897 
1.28141 1.70223 1.06511 
1.29746 1.7024 1.05297 
1.33247 1.70703 1.03842 
1.33473 1.70696 1.03629 
1.38679 1.71339 1.02317 
1.38484 1.7147 1.02334 
1.39554 1.71531 1.01701 
1.44244 1.72034 1.00302 
1.17115 1.74921 1.40606 
1.17451 1.74846 1.40764 
1.17734 1.75258 1.41395 
1.17999 1.71872 1.23861 
1.21426 1.70208 1.12127 
1.24808 1.70337 1.08644 
1.27136 1.70307 1.06937 
1.27307 1.70383 1.06742 
1.27688 1.70502 1.06437 
1.27679 1.70311 1.06638 
1.27893 1.70364 1.06407 
1.28163 1.70479 1.06284 
1.30061 1.70543 1.0513 
1.30245 1.70548 1.04904 
1.31533 1.70699 1.04391 
1.32243 1.70789 1.0409 
1.32455 1.70753 1.0405 
1.35481 1.71325 1.03051 
1.35648 1.71165 1.029 
1.39465 1.71754 1.01478 
1.14524 1.7327 1.32795 
1.14509 1.73274 1.32858 
1.14651 1.73286 1.32854 
1.17164 1.75312 1.40927 
1.17359 1.75321 1.41208 
1.1762 1.75579 1.41392 
1.17724 1.7204 1.23817 
1.18218 1.71842 1.22275 
1.20104 1.7054 1.13671 
1.27306 1.70619 1.06619 
1.27492 1.70648 1.06489 
1.27677 1.70747 1.0638 
1.29188 1.70775 1.0562 
1.39956 1.72033 1.01688 
1.40124 1.72044 1.01656 
1.40373 1.71989 1.01585 
1.50901 1.73655 0.991814 
1.17356 1.75566 1.41007 
1.19987 1.70876 1.13469 
1.21965 1.70689 1.11078 
1.28205 1.70984 1.06033 
1.3153 1.71135 1.04425 
1.31758 1.71135 1.04265 
1.35252 1.71788 1.03317 
1.3589 1.71843 1.03209 
1.36694 1.72049 1.02956 
1.4002 1.72297 1.01725 
1.21684 1.70903 1.11059 
1.21882 1.70996 1.10884 
1.23579 1.70846 1.09319 
1.23616 1.70659 1.07651 
1.38206 1.72461 1.02304 
1.38719 1.72243 1.01758 
1.40542 1.72584 1.01736 
1.21627 1.71164 1.10892 
1.21861 1.71226 1.10755 
1.22329 1.71059 1.1027 
1.22566 1.71145 1.10159 
1.24802 1.712 1.08035 
1.2499 1.71278 1.07854 
1.2781 1.71493 1.0629 
1.28028 1.71503 1.05975 
1.29559 1.7149 1.05258 
1.39046 1.72582 1.01778 
1.14525 1.74656 1.33748 
1.17977 1.72971 1.21644 
1.18185 1.72722 1.20977 
1.18274 1.72728 1.20564 
1.23541 1.71441 1.09015 
1.25261 1.71425 1.07658 
1.26431 1.71438 1.06847 
1.276 1.71654 1.06373 
1.29095 1.71737 1.05502 
1.1458 1.74891 1.33507 
1.17877 1.72855 1.21003 
1.17994 1.72901 1.20659 
1.18305 1.72893 1.20027 
1.19797 1.71807 1.13093 
1.23418 1.7154 1.09072 
1.23839 1.71691 1.08646 
1.24843 1.71651 1.07821 
1.25159 1.71677 1.07752 
1.25346 1.71764 1.07582 
1.27536 1.71867 1.06278 
1.29774 1.71992 1.05104 
1.30306 1.72218 1.04954 
1.30744 1.72093 1.04738 
1.32407 1.72475 1.04137 
1.17843 1.73136 1.20462 
1.20995 1.71955 1.11014 
1.22143 1.71971 1.10017 
1.22525 1.71772 1.09708 
1.22302 1.71899 1.09687 
1.24947 1.71878 1.07768 
1.28323 1.72295 1.05734 
1.301 1.72383 1.05043 
1.30304 1.72471 1.04883 
1.30481 1.72314 1.04833 
1.30729 1.72336 1.04637 
1.32606 1.7259 1.04067 
1.38444 1.73437 1.02404 
1.383 1.73334 1.0245 
1.38753 1.73377 1.02213 
1.46881 1.74868 1.01809 
1.47147 1.74951 1.01396 
1.5208 1.75776 1.01145 
1.54343 1.76077 1.00897 
1.14163 1.75353 1.33677 
1.1418 1.75609 1.33875 
1.14949 1.75453 1.33315 
1.22302 1.72013 1.09618 
1.22543 1.71996 1.0957 
1.23117 1.72108 1.09072 
1.23442 1.72137 1.0871 
1.30301 1.72685 1.04701 
1.14735 1.75811 1.33802 
1.14955 1.75804 1.3366 
1.18415 1.73725 1.19701 
1.23253 1.72286 1.08786 
1.23453 1.72417 1.08681 
1.2991 1.72924 1.05195 
1.3074 1.72853 1.04831 
1.37538 1.73927 1.02909 
1.38303 1.73887 1.0249 
1.40673 1.74603 1.03766 
1.40429 1.74691 1.0367 
1.48476 1.75453 1.01071 
1.23256 1.7253 1.08712 
1.23654 1.72559 1.08357 
1.4439 1.79981 1.25328 
1.40628 1.74813 1.03594 
1.40643 1.74803 1.03286 
1.41684 1.74925 1.02859 
1.44468 1.75222 1.02057 
1.44462 1.75063 1.01376 
1.44713 1.75336 1.01907 
1.44759 1.75089 1.0115 
1.44914 1.75196 1.0186 
1.14139 1.76168 1.33422 
1.18069 1.73959 1.19256 
1.23317 1.72741 1.08543 
1.30685 1.73496 1.05003 
1.31927 1.73575 1.04672 
1.39759 1.7492 1.03814 
1.4043 1.74931 1.03354 
1.42923 1.75355 1.02126 
1.44293 1.75428 1.01877 
1.44223 1.75308 1.0155 
1.44471 1.75222 1.01244 
1.22468 1.73168 1.0917 
1.39744 1.75085 1.03534 
1.39967 1.7509 1.03269 
1.39806 1.75243 1.03317 
1.40041 1.75266 1.0309 
1.40366 1.74998 1.02261 
1.40608 1.75128 1.02969 
1.40467 1.75185 1.02496 
1.4106 1.75209 1.02987 
1.407 1.75076 1.02064 
1.4071 1.75087 1.02085 
1.41171 1.75191 1.02469 
1.15342 1.7704 1.33793 
1.23925 1.73468 1.08421 
1.31835 1.74314 1.04912 
1.43613 1.80848 1.25984 
1.39357 1.75354 1.0348 
1.3964 1.75406 1.03364 
1.39804 1.754 1.03066 
1.40153 1.75438 1.02929 
1.21165 1.73758 1.10619 
1.30363 1.7424 1.05281 
1.39894 1.75604 1.02954 
1.14747 1.7785 1.34842 
1.26182 1.74359 1.0834 
1.1464 1.77947 1.34271 
1.21086 1.74103 1.1064 
1.26182 1.74617 1.08341 
1.34197 1.7602 1.0727 
1.14715 1.78609 1.34076 
1.14825 1.78651 1.34511 
1.21467 1.74872 1.10489 
1.26867 1.75231 1.08302 
1.14801 1.78914 1.3442 
1.33955 1.76575 1.06773 
1.3406 1.76699 1.06667 
1.15989 1.79479 1.33714 
1.30282 1.81439 1.27986 
1.30424 1.81376 1.27723 
1.31321 1.773 1.08723 
1.30072 1.81665 1.28056 
1.44568 1.84815 1.29925 
1.14829 1.80386 1.34015 
1.29799 1.81805 1.27823 
1.38175 1.84006 1.30383 
1.38533 1.84208 1.30941 
1.14676 1.80707 1.3424 
1.29445 1.82294 1.27751 
1.29675 1.82064 1.27619 
1.30362 1.81386 1.23097 
1.37324 1.83958 1.29602 
1.24209 1.82094 1.30683 
1.242 1.82114 1.30753 
1.30516 1.81483 1.23103 
1.43391 1.85614 1.29736 
1.23895 1.82592 1.31119 
1.24106 1.82419 1.30701 
1.24479 1.82455 1.30254 
1.24286 1.82465 1.30573 
1.24315 1.82489 1.30675 
1.24696 1.8251 1.30198 
1.30362 1.81745 1.23214 
1.30615 1.8193 1.22997 
1.15485 1.81795 1.34268 
1.15896 1.81793 1.33927 
1.24196 1.82765 1.30504 
1.24399 1.82818 1.30411 
1.24727 1.8272 1.29985 
1.25008 1.82738 1.29923 
1.24984 1.82674 1.29665 
1.30244 1.82311 1.23989 
1.389 1.85399 1.29997 
1.23709 1.8321 1.31519 
1.23869 1.83283 1.31578 
1.2409 1.83165 1.31066 
1.23949 1.82862 1.30694 
1.24492 1.83147 1.30334 
1.23637 1.83473 1.31646 
1.23793 1.83505 1.315 
1.24033 1.83514 1.31216 
1.24193 1.83432 1.30668 
1.2437 1.83465 1.30483 
1.24505 1.83162 1.30281 
1.15895 1.82789 1.34158 
1.2399 1.83791 1.31351 
1.30156 1.82968 1.22884 
1.30293 1.83037 1.22692 
1.23778 1.84003 1.31465 
1.23613 1.83941 1.31433 
1.23916 1.83987 1.31188 
1.24058 1.83971 1.30936 
1.29795 1.83037 1.22576 
1.29827 1.83123 1.2312 
1.29946 1.83149 1.22519 
1.23689 1.84237 1.31528 
1.23835 1.84177 1.31016 
1.23276 1.84561 1.31417 
1.23598 1.84646 1.31198 
1.23914 1.84384 1.30741 
1.29161 1.83651 1.2349 
1.29243 1.83394 1.22575 
1.29356 1.8341 1.22127 
1.2394 1.84746 1.30448 
1.22461 1.84947 1.31543 
1.29197 1.83727 1.21257 
1.21842 1.85413 1.32113 
1.21842 1.85413 1.32113 
1.22131 1.8551 1.32101 
1.22453 1.85409 1.31804 
1.22206 1.85298 1.31653 
1.23252 1.85467 1.31089 
1.23317 1.85241 1.30894 
1.23476 1.85154 1.30638 
1.23676 1.8559 1.31025 
1.28896 1.83958 1.21172 
1.28942 1.83774 1.20131 
1.2907 1.83501 1.19494 
1.44572 1.8932 1.29883 
1.21814 1.85764 1.32535 
1.21649 1.85712 1.32511 
1.21813 1.8576 1.32518 
1.21995 1.85895 1.32705 
1.2318 1.85664 1.31062 
1.28614 1.83959 1.20025 
1.28901 1.839 1.19773 
1.2156 1.86006 1.32523 
1.22393 1.8599 1.3152 
1.22526 1.86004 1.31251 
1.21435 1.86236 1.32647 
1.21265 1.86193 1.326 
1.21436 1.86559 1.33034 
1.21266 1.86201 1.32633 
1.21928 1.86393 1.32556 
1.22078 1.86414 1.32515 
1.22105 1.86444 1.32386 
1.17341 1.85886 1.33423 
1.22129 1.86689 1.32104 
1.22206 1.86722 1.32081 
1.27648 1.83998 1.17798 
1.27618 1.84161 1.17587 
1.27621 1.84616 1.17788 
1.28189 1.84483 1.16524 
1.28483 1.84417 1.15959 
1.20978 1.87657 1.32916 
1.24856 1.84375 1.17544 
1.27567 1.84712 1.17353 
1.27843 1.84622 1.16628 
1.27843 1.84622 1.16628 
1.28121 1.84543 1.16453 
1.28181 1.8471 1.16554 
1.28181 1.8471 1.16554 
1.28374 1.84381 1.15781 
1.28374 1.84381 1.15781 
1.44518 1.91156 1.28608 
1.19749 1.87764 1.33437 
1.27814 1.8479 1.16464 
1.28126 1.84813 1.166 
1.28126 1.84813 1.166 
1.35167 1.85292 1.12568 
1.20559 1.88016 1.33219 
1.2682 1.84323 1.13806 
1.27715 1.84147 1.12342 
1.27748 1.842 1.12793 
1.34375 1.8536 1.12177 
1.35211 1.85355 1.11292 
1.35939 1.85225 1.10947 
1.52594 2.00332 1.54728 
1.2619 1.84192 1.12911 
1.26316 1.84475 1.13985 
1.34343 1.85547 1.11897 
1.34343 1.85547 1.11897 
1.34343 1.85547 1.11897 
1.24821 1.84514 1.13886 
1.25098 1.84447 1.13759 
1.25276 1.84621 1.14451 
1.26014 1.845 1.13744 
1.33154 1.85191 1.10726 
1.2435 1.84594 1.13613 
1.31923 1.85561 1.11701 
1.32973 1.85347 1.09964 
1.24264 1.85173 1.15456 
1.24316 1.84773 1.1386 
1.25167 1.84799 1.13152 
1.25091 1.84799 1.12995 
1.24971 1.84927 1.13153 
1.32928 1.85449 1.09605 
1.23941 1.85065 1.14025 
1.24775 1.85004 1.13082 
1.24768 1.84919 1.12676 
1.32562 1.85526 1.09437 
1.24052 1.8522 1.13434 
1.23684 1.85247 1.12976 
1.2345 1.84965 1.11476 
1.33209 1.86059 1.08488 
1.35074 1.85915 1.07107 
1.34544 1.86189 1.07076 
1.54833 2.04426 1.57359 
1.60754 1.98949 1.34223 
1.60036 1.9815 1.31914 
1.31399 1.86259 1.08737 
1.58898 1.98234 1.31575 
1.59691 1.98226 1.3176 
1.60545 1.98924 1.3287 
1.61213 1.99338 1.3398 
1.61607 1.99457 1.33926 
1.61798 1.99344 1.33916 
1.62061 1.9941 1.34169 
1.24589 1.85477 1.10418 
1.30942 1.8651 1.08857 
1.54707 2.04758 1.57107 
1.58289 1.98828 1.32812 
1.61322 1.9919 1.32424 
1.62131 1.99335 1.31831 
1.63373 1.99639 1.3207 
1.6332 1.99614 1.32038 
1.6416 1.99919 1.32931 
1.64109 1.9985 1.32678 
1.6431 1.99912 1.32388 
1.6448 1.99845 1.31886 
1.72826 2.0101 1.30642 
1.53848 2.05232 1.5828 
1.53816 2.04971 1.56894 
1.54646 2.05019 1.56731 
1.55675 2.06631 1.60709 
1.58339 1.98809 1.32424 
1.6003 1.98836 1.30852 
1.60901 1.98953 1.30595 
1.61849 1.99511 1.31804 
1.60974 1.98674 1.29472 
1.62018 1.99074 1.29943 
1.63167 1.99394 1.30783 
1.62863 1.99378 1.30482 
1.63537 1.9963 1.3112 
1.63305 1.9935 1.30337 
1.64175 2.00067 1.32827 
1.71019 2.00599 1.28909 
1.71739 2.00738 1.2907 
1.50375 1.97787 1.33075 
1.52383 1.99383 1.36761 
1.52661 1.99243 1.36297 
1.55107 1.98924 1.33409 
1.56437 1.98865 1.32526 
1.5719 1.99061 1.32738 
1.58308 1.98904 1.3148 
1.59277 1.98849 1.30299 
1.59756 1.98906 1.30644 
1.60268 1.99071 1.30564 
1.60671 1.99093 1.30056 
1.60805 1.98846 1.2953 
1.60936 1.98811 1.29118 
1.62527 1.99235 1.29552 
1.66412 1.99966 1.29704 
1.68446 2.00316 1.29034 
1.70082 2.00542 1.29091 
1.49755 1.97983 1.3274 
1.50075 1.9778 1.32399 
1.50845 1.97492 1.29954 
1.51436 1.98503 1.33193 
1.52064 1.98793 1.33784 
1.51762 1.98505 1.32901 
1.51713 1.98485 1.32785 
1.52273 1.98647 1.3326 
1.51961 1.98415 1.32384 
1.5201 1.98453 1.32483 
1.52294 1.98456 1.32433 
1.52638 1.98594 1.33034 
1.52743 1.98534 1.32514 
1.52809 1.98574 1.32567 
1.52177 1.98101 1.31093 
1.57685 1.97909 1.27444 
1.57683 1.97907 1.2744 
1.59109 1.99237 1.30387 
1.58946 1.99013 1.30124 
1.60329 1.99185 1.29936 
1.60562 1.98941 1.28974 
1.35141 1.97729 1.40558 
1.38081 1.95946 1.32566 
1.49134 1.97428 1.30569 
1.49515 1.97508 1.30442 
1.51014 1.98372 1.3258 
1.50948 1.98485 1.32324 
1.55684 1.99039 1.30885 
1.57696 1.99229 1.30674 
1.59108 1.99262 1.29563 
1.59349 1.99473 1.30035 
1.61794 1.99665 1.29333 
1.62341 1.99481 1.28753 
1.38135 1.96205 1.32401 
1.53013 1.98594 1.30627 
1.55208 1.99074 1.30643 
1.33085 1.98784 1.4364 
1.33086 1.98783 1.4365 
1.3372 1.98764 1.43208 
1.38056 1.96498 1.32573 
1.38237 1.96549 1.32325 
1.3835 1.96274 1.32197 
1.38543 1.96367 1.31973 
1.50626 1.97811 1.28612 
1.55126 1.97986 1.26227 
1.74087 2.03107 1.30762 
1.30611 1.98702 1.43796 
1.33085 1.98866 1.43354 
1.33577 1.99068 1.43302 
1.38295 1.96906 1.32497 
1.38296 1.96927 1.32452 
1.38284 1.96453 1.31223 
1.38354 1.96555 1.32034 
1.48409 1.9799 1.29342 
1.57643 1.99282 1.28058 
1.30437 1.98857 1.43938 
1.33319 1.99147 1.43101 
1.35584 1.98105 1.37276 
1.38089 1.97076 1.32506 
1.51177 1.97965 1.26902 
1.55163 1.99212 1.28402 
1.34479 1.98961 1.3961 
1.35534 1.98277 1.36826 
1.38413 1.97079 1.31548 
1.38413 1.97079 1.31548 
1.38413 1.97079 1.31548 
1.47554 1.98635 1.30602 
1.49287 1.98253 1.28118 
1.49884 1.98291 1.27674 
1.49186 1.9751 1.25592 
1.70783 2.03428 1.30365 
1.71039 2.03101 1.29105 
1.30956 1.99411 1.43359 
1.31118 1.99504 1.43101 
1.34504 1.98044 1.35755 
1.34954 1.98594 1.37687 
1.34822 1.98462 1.36821 
1.34968 1.9819 1.3589 
1.35121 1.98552 1.372 
1.37106 1.98337 1.3556 
1.38469 1.97499 1.31793 
1.47771 1.98855 1.29312 
1.70856 2.04116 1.31537 
1.7097 2.03942 1.30439 
1.37806 1.97837 1.32404 
1.38594 1.97863 1.31728 
1.71117 2.04108 1.30878 
1.71193 2.04093 1.29789 
1.27482 1.99256 1.42026 
1.32584 1.98864 1.3766 
1.3446 1.98663 1.35904 
1.37415 1.98244 1.32953 
1.69371 2.0484 1.33165 
1.74048 2.05133 1.30885 
1.22865 1.9926 1.44191 
1.27076 1.99216 1.41766 
1.28195 1.99317 1.40702 
1.30229 1.99354 1.39405 
1.32485 1.98727 1.36541 
1.37217 1.98731 1.33005 
1.38553 1.9828 1.3098 
1.38533 1.9827 1.30917 
1.34835 1.99302 1.35225 
1.38092 1.98758 1.3137 
1.38166 1.98442 1.30151 
1.46133 1.99155 1.27225 
1.7041 2.05248 1.3165 
1.19351 1.99831 1.46279 
1.24919 1.9992 1.42925 
