ply
format ascii 1.0
comment Created by CloudCompare v2.11 alpha (Anoia)
comment Created 20/03/2021 1:10 AM
obj_info Generated by CloudCompare!
element vertex 1778
property float x
property float y
property float z
end_header
2.2466 -0.357894 1.74182 
2.24764 -0.362518 1.74527 
2.24851 -0.367163 1.74873 
2.24939 -0.371808 1.7522 
2.25038 -0.376437 1.75565 
2.25144 -0.381059 1.75911 
2.25233 -0.385702 1.76257 
2.25338 -0.390323 1.76602 
2.25451 -0.394936 1.76947 
2.25591 -0.399514 1.7729 
2.25752 -0.404064 1.77631 
2.25931 -0.408594 1.77972 
2.14764 0.0543241 1.96609 
2.14998 0.0567158 1.96439 
2.14294 0.0473294 1.97113 
2.14548 0.0513864 1.9682 
2.18759 -0.0340873 1.58617 
2.18841 -0.0387742 1.58959 
2.15621 0.0670211 1.95695 
2.15272 0.0591982 1.96264 
2.15495 0.0621042 1.96055 
2.18019 -0.0265321 1.57825 
2.18112 -0.0331044 1.5797 
2.18107 -0.032744 1.57961 
2.18369 -0.0372507 1.58285 
2.1851 -0.0418271 1.58628 
2.18359 -0.0471577 1.59018 
2.1838 -0.0467502 1.58988 
2.18421 -0.0481226 1.59784 
2.2398 -0.320969 1.74345 
2.24021 -0.325673 1.74695 
2.24058 -0.330383 1.75044 
2.24105 -0.335078 1.75393 
2.24149 -0.339778 1.75742 
2.15982 0.0769921 1.94968 
2.15709 0.0680707 1.9562 
2.15931 0.0721705 1.95323 
2.17365 -0.0242848 1.57295 
2.17364 -0.0242552 1.57294 
2.17683 -0.0286116 1.57625 
2.18092 -0.0328468 1.57951 
2.17888 -0.0540881 1.59517 
2.18114 -0.0518442 1.59357 
2.2455 -0.379824 1.80177 
2.16297 0.0834025 1.93773 
2.1614 0.0746233 1.94418 
2.16277 0.0786216 1.94126 
2.16064 0.0809424 1.94488 
2.16899 -0.0653504 1.60321 
2.17157 -0.0625742 1.60123 
2.17363 -0.0242639 1.57294 
2.17393 -0.0597093 1.59918 
2.17626 -0.0572202 1.59741 
2.24195 -0.310925 1.70692 
2.24193 -0.315683 1.71044 
2.24226 -0.320398 1.71394 
2.24256 -0.325116 1.71744 
2.24273 -0.32985 1.72095 
2.24328 -0.334536 1.72443 
2.24392 -0.33921 1.72791 
2.24474 -0.343863 1.73138 
2.24536 -0.34854 1.73486 
2.24584 -0.353234 1.73835 
2.24221 -0.344443 1.7609 
2.24284 -0.349119 1.76438 
2.24346 -0.353795 1.76786 
2.24408 -0.358474 1.77134 
2.2448 -0.363137 1.77481 
2.24553 -0.367801 1.77829 
2.24631 -0.372458 1.78175 
2.24717 -0.377104 1.78522 
2.2481 -0.381742 1.78868 
2.24932 -0.386343 1.79212 
2.25046 -0.390953 1.79557 
2.25174 -0.395547 1.799 
2.25316 -0.400122 1.80243 
2.25462 -0.404693 1.80586 
2.24543 -0.354542 1.74659 
2.24458 -0.351985 1.75022 
2.24631 -0.359184 1.75006 
2.2454 -0.356715 1.75358 
2.24721 -0.363826 1.75352 
2.24622 -0.361495 1.75688 
2.24813 -0.368465 1.75698 
2.24702 -0.36571 1.76094 
2.24909 -0.373099 1.76044 
2.24783 -0.370233 1.76458 
2.25004 -0.377735 1.7639 
2.2509 -0.382381 1.76736 
2.24945 -0.379382 1.77172 
2.25186 -0.387015 1.77082 
2.25297 -0.39163 1.77427 
2.25431 -0.396215 1.7777 
2.25573 -0.400791 1.78113 
2.25738 -0.405337 1.78454 
2.25918 -0.409863 1.78794 
2.26097 -0.414393 1.79135 
2.14722 0.0594301 1.96959 
2.14766 0.0599231 1.96924 
2.14263 0.0517652 1.97513 
2.14501 0.0548283 1.97293 
2.18727 -0.0316158 1.58607 
2.18668 -0.0270508 1.58593 
2.18805 -0.0331945 1.58726 
2.18868 -0.0396595 1.59207 
2.1889 -0.0378418 1.59073 
2.18913 -0.0410117 1.59632 
2.1554 0.0704202 1.9617 
2.15234 0.0640446 1.96633 
2.15354 0.0654259 1.96534 
2.15203 0.0675899 1.9686 
2.23709 -0.326328 1.77651 
2.23864 -0.312857 1.74471 
2.23888 -0.317583 1.74821 
2.23938 -0.322275 1.7517 
2.23964 -0.326999 1.7552 
2.24011 -0.331695 1.75869 
2.24039 -0.336415 1.7622 
2.17959 -0.0216435 1.57846 
2.17927 -0.0192729 1.5783 
2.18124 -0.0245484 1.58066 
2.18482 -0.028849 1.58395 
2.18745 -0.0427829 1.59434 
2.18423 -0.048086 1.59817 
2.18438 -0.0479294 1.59806 
2.15891 0.080378 1.95443 
2.15689 0.0718952 1.96065 
2.15942 0.0756867 1.95792 
2.23949 -0.343793 1.78221 
2.23992 -0.348496 1.78571 
2.24039 -0.353191 1.78919 
2.24101 -0.357869 1.79268 
2.24161 -0.362549 1.79616 
2.24217 -0.367233 1.79964 
2.24301 -0.371882 1.80311 
2.24377 -0.376542 1.80658 
2.24476 -0.381171 1.81003 
2.24576 -0.385801 1.81349 
2.24699 -0.390399 1.81693 
2.24859 -0.394953 1.82035 
2.17792 -0.0202157 1.57736 
2.17914 -0.0528664 1.60156 
2.17919 -0.052643 1.60286 
2.16913 -0.0634442 1.60909 
2.17381 -0.0587871 1.60579 
2.16919 -0.0625475 1.61173 
2.24211 -0.307402 1.7116 
2.24176 -0.312203 1.71515 
2.24234 -0.316886 1.71863 
2.24206 -0.321677 1.72217 
2.24213 -0.326424 1.72568 
2.24247 -0.331138 1.72918 
2.24309 -0.335814 1.73266 
2.24372 -0.34049 1.73614 
2.24447 -0.34515 1.73961 
2.24484 -0.34986 1.74311 
2.24374 -0.346721 1.74758 
2.24101 -0.341093 1.76568 
2.2416 -0.345773 1.76916 
2.2422 -0.350454 1.77264 
2.24274 -0.355141 1.77613 
2.24331 -0.359825 1.77961 
2.24406 -0.364486 1.78308 
2.24483 -0.369144 1.78655 
2.24554 -0.373809 1.79002 
2.24651 -0.378442 1.79348 
2.24742 -0.383081 1.79694 
2.24554 -0.379898 1.80166 
2.24857 -0.387692 1.80039 
2.24971 -0.392303 1.80384 
2.2512 -0.396868 1.80726 
2.25276 -0.401427 1.81068 
2.25422 -0.405996 1.8141 
2.25627 -0.410492 1.81749 
2.17417 -0.0583613 1.60548 
2.17867 -0.0534118 1.60195 
2.1742 -0.057974 1.60678 
2.15114 0.0686235 1.9702 
2.14724 0.0620126 1.97497 
2.14866 0.0635528 1.97388 
2.24857 -0.374088 1.76844 
2.24871 -0.374874 1.76903 
2.24864 -0.374411 1.76868 
2.24862 -0.374379 1.76873 
2.24984 -0.381352 1.77386 
2.2504 -0.383699 1.77561 
2.25025 -0.383397 1.77605 
2.25132 -0.388337 1.77907 
2.25105 -0.387768 1.7799 
2.25281 -0.392903 1.7825 
2.2518 -0.390846 1.78549 
2.25406 -0.397501 1.78594 
2.25258 -0.394523 1.79028 
2.25552 -0.402071 1.78936 
2.25706 -0.406631 1.79278 
2.25876 -0.411171 1.79619 
2.26064 -0.415687 1.79959 
2.14239 0.0558277 1.97941 
2.14462 0.0582819 1.97766 
2.14192 0.0604916 1.98126 
2.19298 -0.0230688 1.59969 
2.19382 -0.0284016 1.60224 
2.23597 -0.318212 1.77776 
2.23584 -0.322985 1.78129 
2.23783 -0.304702 1.74594 
2.23783 -0.309458 1.74946 
2.23796 -0.314199 1.75297 
2.2384 -0.318898 1.75646 
2.23879 -0.323605 1.75996 
2.23922 -0.328306 1.76345 
2.23937 -0.333042 1.76696 
2.23571 -0.348036 1.80712 
2.23627 -0.352721 1.8106 
2.23693 -0.357392 1.81408 
2.23742 -0.362087 1.81757 
2.23799 -0.36677 1.82105 
2.23856 -0.371453 1.82453 
2.23938 -0.376105 1.828 
2.24057 -0.380709 1.83144 
2.24181 -0.385308 1.83488 
2.18634 -0.0236518 1.58744 
2.1875 -0.0250038 1.58848 
2.18972 -0.0294781 1.59186 
2.19075 -0.0341032 1.59531 
2.18948 -0.0415162 1.60076 
2.19028 -0.0389199 1.59886 
2.18978 -0.0414985 1.60542 
2.15187 0.069429 1.96962 
2.15418 0.0737678 1.96648 
2.18085 -0.0163398 1.58187 
2.18313 -0.0208044 1.58524 
2.18454 -0.047182 1.60481 
2.18738 -0.044045 1.60257 
2.18475 -0.0459591 1.61052 
2.23745 -0.331038 1.78 
2.23764 -0.33577 1.78351 
2.23804 -0.340474 1.78701 
2.23831 -0.345197 1.79051 
2.23882 -0.349889 1.794 
2.23926 -0.354589 1.79749 
2.23992 -0.35926 1.80097 
2.24044 -0.36395 1.80445 
2.24109 -0.368624 1.80793 
2.24183 -0.373286 1.8114 
2.24267 -0.377934 1.81487 
2.24366 -0.382565 1.81832 
2.24489 -0.387164 1.82177 
2.24633 -0.391737 1.82519 
2.24815 -0.396261 1.82859 
2.24989 -0.400797 1.832 
2.15857 0.0838377 1.95916 
2.16923 -0.0613237 1.61482 
2.17013 -0.0605079 1.61424 
2.17938 -0.0515502 1.60789 
2.18227 -0.0494502 1.60642 
2.24191 -0.303925 1.71632 
2.24142 -0.308743 1.71987 
2.24171 -0.313463 1.72337 
2.24149 -0.318247 1.7269 
2.24151 -0.323001 1.73042 
2.24174 -0.327728 1.73393 
2.24208 -0.332441 1.73743 
2.24118 -0.329996 1.74092 
2.24268 -0.33712 1.74091 
2.242 -0.334944 1.74399 
2.24349 -0.345158 1.74688 
2.24308 -0.341825 1.7444 
2.24289 -0.341294 1.74516 
2.17428 -0.0563044 1.61125 
2.17583 -0.0550266 1.61036 
2.23981 -0.337743 1.77045 
2.24026 -0.342441 1.77394 
2.24087 -0.34712 1.77742 
2.2397 -0.344282 1.78151 
2.24137 -0.351813 1.78091 
2.24056 -0.349884 1.78369 
2.24185 -0.356508 1.7844 
2.24141 -0.355494 1.78586 
2.24258 -0.361171 1.78787 
2.24224 -0.360387 1.78901 
2.24331 -0.365834 1.79135 
2.24306 -0.365315 1.7921 
2.24395 -0.370508 1.79483 
2.2439 -0.370399 1.79499 
2.24538 -0.37894 1.80111 
2.24488 -0.375147 1.79829 
2.2447 -0.37482 1.79877 
2.24564 -0.380408 1.8022 
2.24664 -0.384434 1.80521 
2.24633 -0.383877 1.80603 
2.24775 -0.38905 1.80866 
2.24712 -0.388013 1.8102 
2.24914 -0.393628 1.81209 
2.2479 -0.391732 1.81493 
2.25064 -0.398194 1.81551 
2.24867 -0.395061 1.82018 
2.25238 -0.402729 1.81892 
2.25417 -0.407257 1.82233 
2.25624 -0.41175 1.82571 
2.15143 0.0721634 1.97488 
2.1482 0.0669967 1.97861 
2.25282 -0.395638 1.79181 
2.25372 -0.398798 1.79418 
2.25336 -0.398181 1.79509 
2.25499 -0.403392 1.79762 
2.25414 -0.401905 1.79981 
2.25669 -0.407931 1.80103 
2.2549 -0.405135 1.8052 
2.25842 -0.412468 1.80443 
2.26077 -0.416924 1.8078 
2.26306 -0.421389 1.81117 
2.23714 -0.296532 1.74716 
2.23688 -0.301321 1.7507 
2.23712 -0.306046 1.7542 
2.23719 -0.310794 1.75772 
2.23749 -0.315511 1.76122 
2.23769 -0.320243 1.76473 
2.23818 -0.324936 1.76822 
2.23838 -0.329666 1.77172 
2.23709 -0.326342 1.77649 
2.23467 -0.310119 1.77902 
2.23476 -0.314863 1.78254 
2.23461 -0.319638 1.78607 
2.23396 -0.335243 1.80489 
2.23421 -0.339967 1.80839 
2.23426 -0.344717 1.81191 
2.23463 -0.349426 1.81541 
2.23514 -0.354117 1.81889 
2.23553 -0.358824 1.82239 
2.23604 -0.363514 1.82588 
2.23657 -0.368203 1.82936 
2.23731 -0.372865 1.83283 
2.23844 -0.377478 1.83628 
2.23965 -0.382081 1.83972 
2.24113 -0.386648 1.84315 
2.24273 -0.391199 1.84656 
2.24469 -0.395707 1.84996 
2.19281 -0.0213449 1.60051 
2.19345 -0.0219997 1.60101 
2.19402 -0.0282192 1.60563 
2.19424 -0.0266542 1.60448 
2.1417 0.0624445 1.98178 
2.14184 0.0624567 1.98391 
2.15179 0.072531 1.97462 
2.18566 -0.0170809 1.58985 
2.18564 -0.0168837 1.58991 
2.18873 -0.0213456 1.5931 
2.19146 -0.0257543 1.59644 
2.19301 -0.0303133 1.59986 
2.19176 -0.0352295 1.60346 
2.18984 -0.0409192 1.60762 
2.19038 -0.0401607 1.60707 
2.23194 -0.352275 1.83202 
2.23228 -0.356987 1.83552 
2.2327 -0.36169 1.83901 
2.2332 -0.366384 1.8425 
2.23417 -0.371015 1.84596 
2.23513 -0.37565 1.84941 
2.23662 -0.380217 1.85284 
2.2361 -0.327707 1.78479 
2.23629 -0.33244 1.7883 
2.23671 -0.337142 1.79179 
2.2369 -0.341874 1.7953 
2.2372 -0.346592 1.7988 
2.2374 -0.351323 1.80231 
2.23593 -0.348517 1.80642 
2.23807 -0.355994 1.80578 
2.23677 -0.35368 1.80919 
2.23872 -0.360667 1.80926 
2.2376 -0.358629 1.81226 
2.23922 -0.36536 1.81275 
2.23844 -0.363979 1.81479 
2.23988 -0.370031 1.81623 
2.23927 -0.368994 1.81776 
2.24061 -0.374694 1.8197 
2.2401 -0.373893 1.8209 
2.24146 -0.379343 1.82317 
2.24091 -0.37853 1.82439 
2.24282 -0.383925 1.8266 
2.2417 -0.38237 1.82895 
2.24407 -0.388522 1.83004 
2.24249 -0.386337 1.83334 
2.24568 -0.393074 1.83345 
2.24754 -0.397592 1.83685 
2.2494 -0.402113 1.84025 
2.25142 -0.406611 1.84364 
2.17953 -0.0497424 1.61384 
2.17965 -0.0484524 1.61828 
2.16926 -0.0587665 1.62022 
2.17165 -0.0568124 1.61884 
2.18206 -0.0126831 1.58649 
2.18556 -0.0169925 1.58978 
2.18477 -0.0457806 1.61107 
2.18491 -0.0456125 1.61095 
2.17439 -0.054256 1.61703 
2.17809 -0.0512364 1.61491 
2.24114 -0.30052 1.72107 
2.24068 -0.305335 1.72462 
2.24095 -0.310057 1.72812 
2.2408 -0.314832 1.73165 
2.24074 -0.319596 1.73517 
2.24082 -0.327217 1.74082 
2.2408 -0.324345 1.73869 
2.24025 -0.322655 1.74109 
2.22959 -0.306267 1.80519 
2.2387 -0.334382 1.77522 
2.23797 -0.332409 1.77804 
2.23919 -0.340966 1.78011 
2.23898 -0.339102 1.77873 
2.23885 -0.338773 1.7792 
2.24872 -0.395269 1.82058 
2.25034 -0.399486 1.82375 
2.24941 -0.398001 1.82596 
2.25205 -0.404024 1.82716 
2.25017 -0.401185 1.83141 
2.2541 -0.408519 1.83055 
2.25604 -0.413029 1.83395 
2.2551 -0.405898 1.80676 
2.25642 -0.40922 1.80926 
2.25565 -0.408122 1.81092 
2.25837 -0.413728 1.81266 
2.25638 -0.410677 1.81722 
2.26069 -0.418188 1.81603 
2.26334 -0.422608 1.81938 
2.23354 -0.302003 1.78027 
2.23365 -0.306746 1.78379 
2.23374 -0.31149 1.7873 
2.23337 -0.316293 1.79085 
2.23203 -0.322475 1.80267 
2.23234 -0.327191 1.80617 
2.23254 -0.331922 1.80968 
2.23266 -0.336662 1.81319 
2.23275 -0.341408 1.81671 
2.23299 -0.346132 1.82021 
2.2334 -0.350836 1.8237 
2.23369 -0.355556 1.82721 
2.23216 -0.352669 1.83144 
2.23411 -0.360259 1.8307 
2.23302 -0.358293 1.83359 
2.23463 -0.364948 1.83419 
2.23386 -0.363647 1.83611 
2.23521 -0.36963 1.83767 
2.2347 -0.368793 1.83891 
2.23623 -0.374256 1.84112 
2.2355 -0.373078 1.84288 
2.2374 -0.378865 1.84457 
2.2363 -0.37727 1.84697 
2.23878 -0.383444 1.848 
2.23707 -0.380869 1.85186 
2.24052 -0.387979 1.85141 
2.2424 -0.392497 1.8548 
2.2446 -0.396972 1.85818 
2.14209 0.0629486 1.98871 
2.23633 -0.293132 1.75192 
2.23613 -0.297914 1.75545 
2.23633 -0.302643 1.75895 
2.23644 -0.307386 1.76247 
2.23661 -0.31212 1.76598 
2.23687 -0.316844 1.76948 
2.23709 -0.326303 1.77649 
2.23722 -0.321556 1.77298 
2.23616 -0.318692 1.77707 
2.19232 -0.0158667 1.60373 
2.19443 -0.0183716 1.60565 
2.19438 -0.0276152 1.61249 
2.19517 -0.0230326 1.60912 
2.19442 -0.0275019 1.61321 
2.22976 -0.339538 1.82982 
2.22976 -0.344295 1.83334 
2.23002 -0.349017 1.83684 
2.23036 -0.35373 1.84034 
2.23075 -0.358436 1.84384 
2.23119 -0.363137 1.84733 
2.232 -0.36779 1.8508 
2.23277 -0.372449 1.85427 
2.23429 -0.377011 1.85769 
2.23585 -0.381568 1.86111 
2.23758 -0.386105 1.86452 
2.17969 -0.0479434 1.61981 
2.18035 -0.0474467 1.61946 
2.185 -0.0106252 1.59234 
2.18459 -0.00645504 1.59425 
2.18695 -0.0133141 1.59439 
2.18974 -0.0177151 1.59773 
2.19308 -0.031559 1.60808 
2.18989 -0.0384636 1.61309 
2.19111 -0.0365649 1.61172 
2.22604 -0.347274 1.85002 
2.22626 -0.352002 1.85352 
2.22678 -0.356693 1.85701 
2.22718 -0.361398 1.86051 
2.22819 -0.366026 1.86396 
2.22975 -0.370583 1.86738 
2.2312 -0.375155 1.87081 
2.17442 -0.0517328 1.62246 
2.17451 -0.0497988 1.62758 
2.16931 -0.0563767 1.62574 
2.17299 -0.0531399 1.62346 
2.18349 -0.00899896 1.5911 
2.1849 -0.0438419 1.61693 
2.18639 -0.0419214 1.61555 
2.23476 -0.324377 1.78958 
2.23488 -0.329117 1.79309 
2.23529 -0.33382 1.79658 
2.23548 -0.338553 1.80009 
2.23416 -0.335707 1.80422 
2.2357 -0.346776 1.80618 
2.23569 -0.343282 1.8036 
2.23504 -0.341854 1.80567 
2.24323 -0.389719 1.83819 
2.24329 -0.389876 1.83831 
2.24326 -0.389839 1.83836 
2.24509 -0.394402 1.84171 
2.24402 -0.393005 1.84384 
2.24708 -0.398905 1.8451 
2.24476 -0.395794 1.84982 
2.24911 -0.403403 1.84849 
2.25158 -0.407844 1.85185 
2.22876 -0.298114 1.80642 
2.22827 -0.302933 1.80997 
2.23251 -0.293877 1.78152 
2.23254 -0.298629 1.78504 
2.23247 -0.303395 1.78856 
2.23259 -0.308134 1.79208 
2.23236 -0.312919 1.79561 
2.25645 -0.410911 1.81781 
2.25831 -0.414989 1.82088 
2.25711 -0.413165 1.82361 
2.26075 -0.419433 1.82424 
2.26363 -0.423823 1.82758 
2.24075 -0.292312 1.72227 
2.24057 -0.297091 1.7258 
2.23998 -0.301921 1.72936 
2.23999 -0.306677 1.73288 
2.23978 -0.31146 1.73641 
2.23966 -0.317919 1.74119 
2.23963 -0.316235 1.73994 
2.23933 -0.315359 1.74119 
2.25035 -0.401868 1.83281 
2.25181 -0.405309 1.8354 
2.25092 -0.4041 1.83723 
2.25375 -0.409817 1.83879 
2.25166 -0.406973 1.8431 
2.25631 -0.414247 1.84215 
2.259 -0.418661 1.84549 
2.22819 -0.326723 1.82758 
2.22791 -0.331516 1.83112 
2.22798 -0.336262 1.83463 
2.22798 -0.341018 1.83815 
2.22808 -0.345763 1.84167 
2.22821 -0.350502 1.84518 
2.22679 -0.348282 1.84849 
2.22872 -0.355192 1.84867 
2.22763 -0.353588 1.85107 
2.22909 -0.359902 1.85216 
2.22847 -0.358895 1.85366 
2.22968 -0.364583 1.85564 
2.22931 -0.364043 1.85646 
2.23049 -0.369236 1.85911 
2.23013 -0.368742 1.85986 
2.23199 -0.373801 1.86254 
2.23089 -0.372164 1.86499 
2.23357 -0.378356 1.86595 
2.23167 -0.375786 1.86985 
2.23519 -0.382906 1.86937 
2.23745 -0.387374 1.87274 
2.23987 -0.391822 1.87611 
2.23092 -0.314357 1.80392 
2.23084 -0.319122 1.80745 
2.2309 -0.323871 1.81096 
2.23112 -0.328599 1.81447 
2.23123 -0.333341 1.81798 
2.23127 -0.338092 1.8215 
2.2313 -0.342844 1.82502 
2.23043 -0.340944 1.82777 
2.23174 -0.34996 1.8303 
2.23153 -0.347572 1.82853 
2.23131 -0.347161 1.82913 
2.23754 -0.383007 1.85493 
2.23813 -0.38478 1.85626 
2.23784 -0.384375 1.85687 
2.24002 -0.389296 1.85966 
2.2386 -0.387474 1.86244 
2.24224 -0.393769 1.86304 
2.24474 -0.398207 1.86639 
2.17976 -0.0456769 1.62543 
2.18248 -0.0436733 1.62402 
2.19203 -0.0114945 1.60778 
2.19178 -0.00875429 1.60927 
2.19479 -0.0148238 1.61032 
2.19553 -0.0194845 1.6138 
2.19445 -0.0252906 1.61806 
2.19506 -0.0243011 1.61735 
2.23561 -0.284964 1.75314 
2.23549 -0.289736 1.75667 
2.23542 -0.294502 1.76019 
2.23559 -0.299236 1.7637 
2.23554 -0.303998 1.76723 
2.23561 -0.308746 1.77074 
2.2359 -0.316848 1.77675 
2.23574 -0.313486 1.77425 
2.23526 -0.312035 1.77631 
2.17452 -0.0495814 1.62816 
2.17481 -0.049405 1.62804 
2.18501 -0.00530198 1.5957 
2.18764 -0.00972286 1.59905 
2.19063 -0.0140978 1.60237 
2.19428 -0.0279032 1.6127 
2.1898 -0.0352998 1.61804 
2.19147 -0.0330162 1.6164 
2.22407 -0.329755 1.84429 
2.22389 -0.334533 1.84782 
2.224 -0.339276 1.85133 
2.22382 -0.344055 1.85486 
2.22397 -0.348791 1.85837 
2.22436 -0.353498 1.86187 
2.22472 -0.358208 1.86536 
2.22312 -0.355176 1.86981 
2.22645 -0.362745 1.86877 
2.22746 -0.367373 1.87223 
2.22901 -0.37193 1.87565 
2.23088 -0.376449 1.87905 
2.23282 -0.380958 1.88244 
2.16934 -0.0538418 1.63116 
2.18503 -0.0418954 1.62278 
2.18704 -0.0383352 1.62021 
2.23339 -0.321048 1.79437 
2.23346 -0.325795 1.79788 
2.23241 -0.323384 1.80136 
2.2339 -0.333863 1.80387 
2.2338 -0.330507 1.80138 
2.23328 -0.329373 1.80302 
2.24479 -0.395892 1.8501 
2.24693 -0.400178 1.85333 
2.24548 -0.398153 1.85639 
2.24923 -0.404641 1.8567 
2.25189 -0.409058 1.86005 
2.22775 -0.289984 1.80767 
2.2275 -0.294772 1.8112 
2.22714 -0.299573 1.81475 
2.25763 -0.414944 1.82812 
2.25824 -0.416251 1.8291 
2.25784 -0.415703 1.82993 
2.26111 -0.420641 1.83244 
2.26411 -0.425016 1.83576 
2.23185 -0.285701 1.78274 
2.23156 -0.290494 1.78628 
2.23159 -0.295246 1.7898 
2.23135 -0.300034 1.79334 
2.2313 -0.304796 1.79686 
2.23092 -0.311481 1.8018 
2.23095 -0.309596 1.8004 
2.23056 -0.308671 1.80173 
2.25177 -0.407256 1.84413 
2.25389 -0.411052 1.847 
2.25238 -0.408983 1.85014 
2.25668 -0.415455 1.85034 
2.25943 -0.41986 1.85369 
2.24008 -0.288894 1.72701 
2.23973 -0.293694 1.73056 
2.2394 -0.298492 1.7341 
2.23907 -0.303291 1.73764 
2.23861 -0.309259 1.74204 
2.23868 -0.308096 1.74118 
2.23837 -0.307101 1.74259 
2.22311 -0.289579 1.8291 
2.1799 -0.0437619 1.6313 
2.18368 -0.0400178 1.62864 
2.17455 -0.0470496 1.63358 
2.17712 -0.0456082 1.63259 
2.22675 -0.318648 1.82885 
2.22644 -0.323444 1.83239 
2.22595 -0.328262 1.83594 
2.22615 -0.332992 1.83945 
2.22416 -0.329902 1.84407 
2.2259 -0.33778 1.84299 
2.22505 -0.336389 1.84505 
2.22609 -0.343477 1.84721 
2.22608 -0.342513 1.8465 
2.22592 -0.342244 1.8469 
2.23201 -0.377208 1.87235 
2.23297 -0.379686 1.87421 
2.23242 -0.378879 1.87542 
2.235 -0.384183 1.8776 
2.23316 -0.381552 1.88156 
2.23738 -0.388636 1.88097 
2.24057 -0.392987 1.88428 
2.19155 -0.00605503 1.61103 
2.19249 -0.00685665 1.61165 
2.19543 -0.01124 1.61498 
2.19596 -0.0159281 1.61847 
2.19441 -0.0223688 1.62319 
2.19555 -0.0207363 1.62201 
2.22957 -0.311027 1.80871 
2.22948 -0.315793 1.81224 
2.22964 -0.320529 1.81575 
2.22979 -0.325266 1.81926 
2.22971 -0.330033 1.82278 
2.22864 -0.327565 1.82634 
2.2298 -0.336202 1.82735 
2.22979 -0.334779 1.8263 
2.22953 -0.334246 1.82707 
2.23902 -0.388721 1.86649 
2.24003 -0.390548 1.86788 
2.23931 -0.389624 1.86929 
2.24217 -0.395031 1.87126 
2.24004 -0.392047 1.87576 
2.24512 -0.399412 1.87459 
2.23498 -0.281543 1.75788 
2.23465 -0.286341 1.76142 
2.23462 -0.291101 1.76494 
2.23466 -0.295851 1.76846 
2.23468 -0.300606 1.77198 
2.23464 -0.306968 1.77669 
2.23464 -0.305367 1.7755 
2.23433 -0.304423 1.77684 
2.18542 -0.00174794 1.60037 
2.1879 -0.00618747 1.60373 
2.191 -0.0105484 1.60705 
2.18966 -0.0318112 1.62275 
2.19124 -0.0295436 1.62111 
2.16935 -0.0512504 1.63654 
2.16935 -0.0509156 1.6372 
2.2225 -0.321697 1.84557 
2.22248 -0.326455 1.84909 
2.22216 -0.331252 1.85263 
2.22239 -0.335979 1.85613 
2.22173 -0.340818 1.8597 
2.22215 -0.345521 1.86319 
2.22141 -0.343806 1.86566 
2.22286 -0.353491 1.86911 
2.22253 -0.35023 1.86669 
2.22226 -0.349324 1.86796 
2.2232 -0.355404 1.87053 
2.2247 -0.359466 1.87359 
2.22382 -0.35692 1.87721 
2.22552 -0.364117 1.87705 
2.22733 -0.368642 1.88045 
2.22929 -0.373149 1.88385 
2.23111 -0.377673 1.88725 
2.23329 -0.382151 1.89063 
2.18499 -0.0389919 1.62792 
2.18734 -0.0347954 1.62489 
2.18502 -0.0367737 1.63268 
2.23206 -0.320679 1.80134 
2.23215 -0.317703 1.79914 
2.23148 -0.315948 1.80166 
2.24585 -0.399272 1.85992 
2.24698 -0.401424 1.86155 
2.2462 -0.400277 1.86327 
2.24971 -0.405834 1.86489 
2.25276 -0.410201 1.86821 
2.2268 -0.281847 1.80891 
2.22662 -0.286626 1.81244 
2.22629 -0.291424 1.81598 
2.22585 -0.296235 1.81953 
2.2585 -0.417203 1.83711 
2.25865 -0.417452 1.8373 
2.25854 -0.417305 1.83752 
2.26154 -0.421841 1.84063 
2.25923 -0.418975 1.84502 
2.26473 -0.426191 1.84394 
2.25267 -0.409703 1.85326 
2.25424 -0.412263 1.8552 
2.25308 -0.410768 1.85748 
2.2573 -0.416629 1.85852 
2.26042 -0.420988 1.86184 
2.22237 -0.281415 1.83033 
2.22185 -0.286237 1.83388 
2.18 -0.041635 1.63702 
2.18001 -0.0414489 1.63749 
2.23092 -0.277562 1.78398 
2.23075 -0.282338 1.78751 
2.23048 -0.28713 1.79105 
2.23047 -0.291887 1.79457 
2.23027 -0.296668 1.7981 
2.22983 -0.30259 1.80247 
2.22992 -0.301469 1.80165 
2.2296 -0.300565 1.80293 
2.2397 -0.280684 1.72822 
2.23931 -0.285491 1.73176 
2.23897 -0.29029 1.73531 
2.23873 -0.295075 1.73884 
2.23786 -0.302304 1.74416 
2.23807 -0.299916 1.7424 
2.23736 -0.297521 1.74578 
2.17459 -0.0445947 1.63905 
2.17981 -0.0417637 1.63711 
2.19152 -0.00319621 1.61621 
2.1919 -0.00342945 1.61639 
2.19547 -0.00773087 1.61968 
2.19561 -0.0124696 1.62319 
2.19422 -0.0186072 1.62769 
2.19528 -0.0172683 1.62673 
2.19391 -0.0148027 1.63036 
2.23428 -0.273373 1.7591 
2.23408 -0.278154 1.76264 
2.23392 -0.282931 1.76617 
2.23369 -0.287716 1.7697 
2.23373 -0.292467 1.77322 
2.23344 -0.29744 1.77689 
2.23344 -0.297261 1.77676 
2.23341 -0.297143 1.77693 
2.16934 -0.0485042 1.64179 
2.17045 -0.0477105 1.64124 
2.22507 -0.305846 1.82662 
2.2251 -0.310599 1.83014 
2.22497 -0.315373 1.83367 
2.22479 -0.320151 1.8372 
2.22407 -0.329261 1.84392 
2.22414 -0.32499 1.84076 
2.22327 -0.323377 1.84313 
2.23335 -0.382138 1.88333 
2.23503 -0.385433 1.88582 
2.23387 -0.383489 1.8887 
2.23815 -0.389792 1.88914 
2.2411 -0.394173 1.89247 
2.22819 -0.3077 1.8135 
2.22804 -0.312475 1.81703 
2.22831 -0.317196 1.82053 
2.22831 -0.325008 1.82631 
2.22837 -0.321945 1.82405 
2.22772 -0.320434 1.82623 
2.24009 -0.392123 1.87634 
2.2428 -0.396206 1.87944 
2.24072 -0.393175 1.88399 
2.24562 -0.400602 1.88277 
2.18475 0.00166914 1.60511 
2.18425 0.00211295 1.60582 
2.1868 -0.00282529 1.6085 
2.18948 -0.0280931 1.62728 
2.1911 -0.0260588 1.62582 
2.18707 -0.031327 1.6296 
2.18502 -0.0364434 1.63333 
2.18508 -0.0363373 1.63325 
2.18494 -0.0348527 1.63528 
2.24672 -0.401524 1.86891 
2.24737 -0.402629 1.86974 
2.2469 -0.401953 1.87076 
2.25037 -0.407002 1.87307 
2.25367 -0.411339 1.87638 
2.22579 -0.273717 1.81015 
2.2253 -0.278535 1.8137 
2.2252 -0.283304 1.81723 
2.22502 -0.288083 1.82076 
2.22438 -0.294532 1.82552 
2.22449 -0.292906 1.82432 
2.22406 -0.291875 1.8258 
2.22145 -0.31357 1.84681 
2.22122 -0.318357 1.85035 
2.22126 -0.323107 1.85387 
2.22093 -0.327905 1.85741 
2.22119 -0.332629 1.86091 
2.22077 -0.338846 1.8655 
2.22076 -0.337438 1.86446 
2.22048 -0.33626 1.86611 
2.22424 -0.358662 1.88027 
2.22479 -0.360707 1.8818 
2.22456 -0.359519 1.88345 
2.22633 -0.365267 1.88522 
2.22815 -0.369792 1.88862 
2.23 -0.374311 1.89202 
2.23199 -0.378814 1.89541 
2.23397 -0.383319 1.89881 
2.25931 -0.419129 1.84585 
2.26202 -0.423032 1.84882 
2.25993 -0.420571 1.85261 
2.26597 -0.427287 1.85208 
2.25338 -0.411084 1.8616 
2.25513 -0.413402 1.86336 
2.25374 -0.411498 1.86624 
2.25829 -0.417756 1.86668 
2.18468 -0.0328857 1.63798 
2.18004 -0.0391557 1.64248 
2.18078 -0.0381368 1.64175 
2.2214 -0.278036 1.83509 
2.22114 -0.282824 1.83863 
2.17463 -0.0421281 1.64452 
2.23001 -0.274175 1.78874 
2.22955 -0.278989 1.79229 
2.22932 -0.283775 1.79582 
2.22928 -0.288535 1.79935 
2.22896 -0.294942 1.80408 
2.22906 -0.293321 1.80288 
2.22864 -0.29218 1.80451 
2.23862 -0.277319 1.73299 
2.23828 -0.282119 1.73653 
2.23811 -0.286896 1.74006 
2.23721 -0.295895 1.74669 
2.23792 -0.291677 1.74359 
2.19103 0.00227096 1.61944 
2.19425 0.00037202 1.62094 
2.19516 -0.00426892 1.6244 
2.19375 -0.0132441 1.631 
2.19511 -0.00903032 1.62792 
2.16932 -0.045685 1.647 
2.17189 -0.0440251 1.64585 
2.22692 -0.304358 1.81828 
2.22657 -0.309159 1.82182 
2.22595 -0.307694 1.82393 
2.22686 -0.314061 1.82546 
2.22686 -0.313877 1.82532 
2.22683 -0.313806 1.82543 
2.24076 -0.393257 1.88449 
2.24342 -0.39738 1.88762 
2.2414 -0.394602 1.89182 
2.24727 -0.401646 1.89089 
2.18929 -0.0243213 1.63178 
2.19048 -0.0226347 1.63056 
2.18894 -0.0205091 1.63378 
2.22412 -0.297709 1.82786 
2.22339 -0.302558 1.83143 
2.22338 -0.307315 1.83495 
2.22316 -0.3121 1.83848 
2.22275 -0.319021 1.84359 
2.22303 -0.316873 1.84201 
2.22233 -0.315594 1.84389 
2.23415 -0.384026 1.89204 
2.23566 -0.386607 1.894 
2.23456 -0.384903 1.89654 
2.23918 -0.390915 1.89729 
2.23374 -0.265184 1.76032 
2.23356 -0.269962 1.76385 
2.23332 -0.274748 1.76739 
2.23312 -0.27953 1.77092 
2.23308 -0.284292 1.77444 
2.23265 -0.290244 1.77884 
2.23272 -0.289094 1.77799 
2.23241 -0.287915 1.77964 
2.24746 -0.40303 1.87733 
2.24797 -0.403806 1.87792 
2.24758 -0.403298 1.8787 
2.2516 -0.4081 1.88121 
2.26006 -0.420731 1.85435 
2.26306 -0.424155 1.85697 
2.26059 -0.421238 1.86147 
2.2672 -0.428383 1.86022 
2.25399 -0.411834 1.86946 
2.25598 -0.414548 1.87153 
2.25441 -0.412465 1.87469 
2.25975 -0.418824 1.8748 
2.18484 -0.0327326 1.63787 
2.18718 -0.0278104 1.6343 
2.18445 -0.0294119 1.64269 
2.18005 -0.0365151 1.64782 
2.18128 -0.0345718 1.64642 
2.22132 -0.269788 1.83628 
2.22087 -0.2746 1.83983 
2.22058 -0.279393 1.84337 
2.22041 -0.300688 1.84454 
2.22042 -0.305444 1.84806 
2.22031 -0.310213 1.85159 
2.22019 -0.314985 1.85511 
2.22027 -0.31973 1.85863 
2.22017 -0.324499 1.86215 
2.2201 -0.33237 1.86798 
2.2203 -0.32924 1.86567 
2.22486 -0.359485 1.88819 
2.22439 -0.355185 1.8893 
2.2256 -0.361858 1.88997 
2.22515 -0.358635 1.89439 
2.22739 -0.366386 1.89337 
2.22924 -0.370905 1.89677 
2.23122 -0.375409 1.90016 
2.23319 -0.379916 1.90356 
2.17464 -0.0394724 1.64985 
2.17467 -0.0379445 1.65335 
2.22489 -0.265571 1.81139 
2.22437 -0.270395 1.81494 
2.22383 -0.275219 1.8185 
2.22379 -0.27998 1.82202 
2.22344 -0.286474 1.82682 
2.22363 -0.284757 1.82555 
2.22309 -0.283346 1.82757 
2.22949 -0.265982 1.78995 
2.22891 -0.270812 1.79351 
2.22838 -0.275634 1.79706 
2.22812 -0.280425 1.8006 
2.22801 -0.286808 1.80532 
2.22811 -0.285182 1.80412 
2.22768 -0.283975 1.80584 
2.23824 -0.269109 1.73419 
2.23761 -0.273945 1.73775 
2.23732 -0.278739 1.74129 
2.23719 -0.28351 1.74482 
2.23654 -0.289367 1.74913 
2.23667 -0.288332 1.74837 
2.23632 -0.287406 1.7497 
2.16934 -0.043119 1.65239 
2.17345 -0.040324 1.65044 
2.19301 -0.0063344 1.63316 
2.19339 -0.00574693 1.63273 
2.19288 -0.00490293 1.63398 
2.18875 -0.018519 1.63476 
2.19317 -0.0140345 1.63157 
2.22544 -0.303268 1.82472 
2.22566 -0.301016 1.82306 
2.22499 -0.299481 1.82528 
2.24146 -0.394588 1.89278 
2.24493 -0.398442 1.89574 
2.2331 -0.257006 1.76154 
2.23279 -0.261802 1.76508 
2.23274 -0.266564 1.7686 
2.23273 -0.271321 1.77212 
2.23228 -0.276134 1.77567 
2.23198 -0.283749 1.7813 
2.23216 -0.280906 1.7792 
2.23142 -0.278926 1.78203 
2.22269 -0.294388 1.83265 
2.22191 -0.299243 1.83622 
2.22175 -0.30402 1.83975 
2.22048 -0.300927 1.8442 
2.22157 -0.309616 1.84389 
2.22163 -0.308792 1.84328 
2.22141 -0.308295 1.844 
2.23471 -0.384524 1.89972 
2.23734 -0.387646 1.90211 
2.24081 -0.391961 1.9054 
2.24797 -0.40327 1.88482 
2.24934 -0.404886 1.88606 
2.2482 -0.403053 1.88878 
2.25309 -0.409164 1.88933 
2.26062 -0.421204 1.86201 
2.26462 -0.42521 1.86509 
2.17469 -0.0370844 1.65538 
2.17558 -0.0365491 1.65501 
2.25455 -0.412351 1.87715 
2.25754 -0.415602 1.87965 
2.26145 -0.419861 1.88291 
2.22045 -0.261639 1.83751 
2.22061 -0.266376 1.84102 
2.22022 -0.271181 1.84457 
2.21992 -0.275975 1.84811 
2.18447 -0.0259065 1.64739 
2.18004 -0.0337816 1.65309 
2.1814 -0.0310531 1.65111 
2.18803 -0.0194441 1.63542 
2.18468 -0.0291282 1.64249 
2.18664 -0.0243773 1.63903 
2.21967 -0.29728 1.84929 
2.21968 -0.302035 1.85281 
2.21958 -0.306803 1.85633 
2.21944 -0.311577 1.85986 
2.21951 -0.316324 1.86338 
2.21978 -0.321046 1.86688 
2.21945 -0.325977 1.87052 
2.21946 -0.325844 1.87042 
2.22259 -0.341789 1.8879 
2.22418 -0.352895 1.89058 
2.22342 -0.346788 1.8909 
2.22507 -0.357966 1.89436 
2.22452 -0.353736 1.89122 
2.22516 -0.358498 1.89476 
2.22514 -0.358314 1.89483 
2.22695 -0.362939 1.8981 
2.22883 -0.367455 1.9015 
2.23052 -0.371996 1.90491 
2.23257 -0.376492 1.9083 
2.2347 -0.380977 1.91168 
2.22468 -0.25734 1.81258 
2.22391 -0.262193 1.81615 
2.22351 -0.267001 1.8197 
2.22299 -0.271824 1.82325 
2.22265 -0.279267 1.82875 
2.22303 -0.276575 1.82677 
2.22894 -0.257793 1.79117 
2.22852 -0.262604 1.79471 
2.22792 -0.267436 1.79827 
2.22745 -0.272252 1.80182 
2.227 -0.278362 1.80633 
2.22704 -0.27706 1.80537 
2.22674 -0.276132 1.80669 
2.23777 -0.260909 1.7354 
2.23705 -0.265757 1.73897 
2.23661 -0.270569 1.74251 
2.23641 -0.275352 1.74605 
2.23591 -0.283093 1.75176 
2.23649 -0.280098 1.74956 
2.16933 -0.0403293 1.65762 
2.18818 -0.0125867 1.63764 
2.1894 -0.0110113 1.63651 
2.18788 -0.00974378 1.63857 
2.24195 -0.394648 1.90013 
2.24243 -0.395257 1.9006 
2.24204 -0.394645 1.90151 
2.24692 -0.399442 1.90383 
2.23203 -0.248884 1.76279 
2.23245 -0.253585 1.76628 
2.23205 -0.258394 1.76983 
2.23184 -0.263176 1.77336 
2.23181 -0.267936 1.77688 
2.23109 -0.275959 1.7828 
2.23147 -0.272736 1.78043 
2.22182 -0.290997 1.83741 
2.22042 -0.300353 1.84429 
2.22071 -0.295894 1.841 
2.23507 -0.383851 1.90652 
2.23545 -0.384384 1.90693 
2.23512 -0.383293 1.90847 
2.23941 -0.388637 1.91019 
2.26106 -0.421057 1.8692 
2.26199 -0.422041 1.86996 
2.26121 -0.421042 1.87148 
2.26652 -0.426221 1.87319 
2.22007 -0.258184 1.84224 
2.22011 -0.262936 1.84575 
2.22015 -0.267687 1.84927 
2.21965 -0.272507 1.85283 
2.24835 -0.40271 1.89171 
2.25116 -0.405907 1.89416 
2.25517 -0.410152 1.89742 
2.25503 -0.412367 1.88447 
2.25507 -0.412415 1.88451 
2.25503 -0.412367 1.88458 
2.25933 -0.416628 1.88775 
2.17469 -0.0344135 1.66069 
2.17713 -0.0328504 1.65961 
2.18398 -0.0224666 1.65212 
2.18002 -0.0309702 1.6583 
2.18162 -0.0275223 1.65579 
2.18632 -0.0161586 1.64023 
2.18456 -0.0257357 1.64727 
2.18588 -0.0209702 1.64378 
2.21936 -0.28906 1.85049 
2.21913 -0.293846 1.85402 
2.21914 -0.298602 1.85754 
2.21902 -0.303372 1.86107 
2.21898 -0.308134 1.86459 
2.21944 -0.312832 1.86808 
2.21953 -0.317575 1.8716 
2.21969 -0.324639 1.87683 
2.21963 -0.32232 1.87511 
2.22008 -0.326174 1.87973 
2.22087 -0.330171 1.88409 
2.22223 -0.339119 1.88762 
2.2217 -0.335371 1.88681 
2.22288 -0.34093 1.88898 
2.22379 -0.34557 1.89244 
2.22501 -0.350171 1.89588 
2.22567 -0.354843 1.89936 
2.22729 -0.359393 1.90278 
2.2287 -0.363969 1.9062 
2.23058 -0.368486 1.9096 
2.23217 -0.37304 1.91302 
2.23439 -0.377513 1.9164 
2.22366 -0.253967 1.81735 
2.22322 -0.258778 1.82089 
2.22307 -0.263555 1.82443 
2.2224 -0.268395 1.82799 
2.22211 -0.273544 1.83179 
2.22219 -0.273179 1.83152 
2.22203 -0.27264 1.83228 
2.19245 0.00224432 1.64137 
2.19174 0.00785592 1.64147 
2.22803 -0.249651 1.7924 
2.2278 -0.254436 1.79594 
2.22751 -0.25923 1.79948 
2.22709 -0.264039 1.80303 
2.22606 -0.270297 1.80763 
2.22612 -0.268918 1.80661 
2.22578 -0.268066 1.80783 
2.23662 -0.257553 1.74017 
2.23608 -0.262378 1.74373 
2.23597 -0.267148 1.74726 
2.23562 -0.27195 1.7508 
2.23535 -0.27719 1.75467 
2.23542 -0.276731 1.75433 
2.23525 -0.2763 1.75495 
2.16934 -0.0376957 1.66296 
2.24224 -0.393609 1.90667 
2.24486 -0.396202 1.90866 
2.22013 -0.254674 1.84693 
2.21993 -0.259456 1.85047 
2.22029 -0.264167 1.85396 
2.22 -0.268959 1.8575 
2.18762 -0.00669709 1.64056 
2.19175 -0.00245306 1.63754 
2.23113 -0.245496 1.76755 
2.2313 -0.25023 1.77105 
2.23094 -0.255033 1.7746 
2.23099 -0.259781 1.77811 
2.23095 -0.264543 1.78164 
2.23041 -0.269402 1.78522 
2.23041 -0.269368 1.78519 
2.2304 -0.269324 1.78525 
2.24872 -0.402166 1.89861 
2.24917 -0.402658 1.89898 
2.24879 -0.402108 1.89981 
2.25327 -0.406892 1.90224 
2.26147 -0.420697 1.87624 
2.26396 -0.423044 1.87805 
2.26182 -0.420452 1.88203 
2.2209 -0.287612 1.84217 
2.21979 -0.29409 1.84693 
2.21999 -0.292482 1.84575 
2.21939 -0.289218 1.85027 
2.23513 -0.381533 1.9121 
2.2385 -0.38525 1.91495 
2.24163 -0.389606 1.91827 
2.25533 -0.411425 1.89107 
2.25723 -0.413393 1.89258 
2.2556 -0.41086 1.89637 
2.26177 -0.417571 1.89581 
2.17467 -0.0316102 1.66591 
2.17852 -0.0291709 1.66421 
2.18546 -0.0127654 1.64499 
2.18433 -0.0217262 1.65158 
2.18555 -0.0175104 1.6485 
2.18322 -0.0190617 1.65687 
2.18001 -0.0282503 1.66358 
2.18183 -0.0239936 1.66048 
2.21891 -0.285616 1.85521 
2.21869 -0.2904 1.85875 
2.2191 -0.295104 1.86224 
2.21904 -0.299867 1.86577 
2.21918 -0.304606 1.86928 
2.21966 -0.309301 1.87277 
2.2201 -0.314001 1.87626 
2.22045 -0.318713 1.87976 
2.22098 -0.3234 1.88324 
2.22167 -0.328068 1.88672 
2.22278 -0.332685 1.89017 
2.22373 -0.337319 1.89362 
2.22473 -0.341948 1.89708 
2.22563 -0.34659 1.90054 
2.2265 -0.351235 1.90401 
2.228 -0.355801 1.90743 
2.22935 -0.360384 1.91086 
2.23063 -0.364978 1.9143 
2.23223 -0.36953 1.91772 
2.23408 -0.374051 1.92112 
2.22287 -0.250565 1.8221 
2.22267 -0.255347 1.82563 
2.22237 -0.260142 1.82917 
2.22142 -0.266898 1.83414 
2.2216 -0.264996 1.83274 
2.22104 -0.263631 1.8347 
2.22718 -0.241501 1.79364 
2.22722 -0.246251 1.79716 
2.22673 -0.25107 1.80071 
2.22628 -0.255884 1.80426 
2.22531 -0.263372 1.80977 
2.22586 -0.260692 1.8078 
2.22473 -0.257486 1.81237 
2.16933 -0.0349344 1.66821 
2.16932 -0.034309 1.66939 
2.2357 -0.244656 1.73789 
2.23591 -0.249385 1.7414 
2.2356 -0.25418 1.74494 
2.23501 -0.259012 1.7485 
2.23485 -0.263789 1.75203 
2.23445 -0.269391 1.75616 
2.23452 -0.268587 1.75557 
2.23427 -0.267601 1.75695 
2.24253 -0.392567 1.9132 
2.2429 -0.392948 1.91349 
2.24257 -0.392266 1.91448 
2.24757 -0.397109 1.91671 
2.21988 -0.251203 1.85165 
2.21976 -0.255976 1.85518 
2.22016 -0.260681 1.85867 
2.22 -0.265457 1.8622 
2.26186 -0.420225 1.8832 
2.26679 -0.423937 1.88609 
2.24904 -0.40129 1.90526 
2.25147 -0.403618 1.90706 
2.25576 -0.407829 1.9103 
2.25567 -0.410628 1.89778 
2.25962 -0.414342 1.90065 
2.23021 -0.237353 1.76878 
2.23016 -0.242116 1.77231 
2.23036 -0.246847 1.77582 
2.23005 -0.251643 1.77936 
2.23018 -0.256382 1.78287 
2.22984 -0.263434 1.78808 
2.23009 -0.261149 1.78639 
2.22936 -0.258956 1.78951 
2.21937 -0.289012 1.85045 
2.2204 -0.284173 1.8469 
2.23505 -0.378354 1.91704 
2.23804 -0.381806 1.91968 
2.24078 -0.386212 1.92302 
2.17472 -0.0291681 1.67139 
2.17992 -0.0254897 1.66882 
2.21904 -0.282097 1.85991 
2.21884 -0.286877 1.86344 
2.21928 -0.291579 1.86693 
2.21936 -0.296324 1.87045 
2.21963 -0.301046 1.87395 
2.22012 -0.305739 1.87744 
2.22059 -0.310436 1.88093 
2.22101 -0.315138 1.88442 
2.22198 -0.319771 1.88788 
2.22265 -0.324441 1.89135 
2.22346 -0.329094 1.89482 
2.22429 -0.333745 1.89829 
2.22506 -0.338404 1.90176 
2.22593 -0.343049 1.90522 
2.22674 -0.347701 1.90869 
2.228 -0.352298 1.91213 
2.2297 -0.356837 1.91554 
2.23105 -0.361421 1.91897 
2.23236 -0.366011 1.92241 
2.23418 -0.370535 1.92581 
2.18324 -0.00954572 1.64983 
2.18264 -0.0088844 1.65086 
2.18383 -0.0162273 1.65479 
2.18426 -0.0141723 1.65328 
2.18343 -0.0126708 1.65549 
2.18242 -0.0109039 1.6581 
2.18208 -0.0157038 1.66164 
2.17999 -0.0254359 1.66879 
2.18161 -0.0205193 1.66519 
2.22291 -0.242302 1.82327 
2.22224 -0.247143 1.82684 
2.22216 -0.251909 1.83036 
2.22071 -0.26015 1.83642 
2.22162 -0.256734 1.83392 
2.22628 -0.238112 1.7984 
2.2263 -0.242866 1.80192 
2.22611 -0.247645 1.80545 
2.2247 -0.257206 1.81248 
2.22553 -0.252476 1.80901 
2.1693 -0.0320906 1.6734 
2.17069 -0.0314213 1.67294 
2.21979 -0.247713 1.85635 
2.21969 -0.252482 1.85988 
2.22014 -0.25718 1.86337 
2.22009 -0.261942 1.86689 
2.24268 -0.390741 1.91914 
2.24593 -0.393815 1.92151 
2.26214 -0.419113 1.88967 
2.26424 -0.42076 1.89095 
2.26237 -0.418425 1.89453 
2.24933 -0.400216 1.91177 
2.24949 -0.400367 1.91188 
2.24935 -0.400144 1.91222 
2.25413 -0.404534 1.9151 
2.25592 -0.40938 1.90416 
2.25768 -0.411087 1.90547 
2.25614 -0.408497 1.90931 
2.26241 -0.415241 1.90869 
2.23446 -0.236555 1.73915 
2.23457 -0.241298 1.74266 
2.23469 -0.246038 1.74618 
2.23441 -0.250829 1.74971 
2.23414 -0.25562 1.75325 
2.23372 -0.262558 1.75838 
2.2338 -0.26042 1.75679 
2.23325 -0.257836 1.76039 
2.22943 -0.229195 1.77001 
2.22932 -0.233964 1.77354 
2.2293 -0.238724 1.77706 
2.22938 -0.243469 1.78058 
2.22905 -0.248268 1.78412 
2.22904 -0.256226 1.79001 
2.22923 -0.253 1.78763 
2.2284 -0.250669 1.79095 
2.21906 -0.284529 1.85441 
2.21997 -0.280726 1.85163 
2.23496 -0.375129 1.92194 
2.23792 -0.378318 1.92439 
2.24034 -0.382767 1.92775 
2.21935 -0.28331 1.8681 
2.21939 -0.288062 1.87162 
2.21965 -0.292784 1.87513 
2.21996 -0.297501 1.87863 
2.22069 -0.302164 1.8821 
2.22083 -0.306902 1.88561 
2.22127 -0.311604 1.8891 
2.22209 -0.316254 1.89257 
2.22281 -0.320919 1.89604 
2.22359 -0.325576 1.89951 
2.22442 -0.330226 1.90298 
2.22523 -0.33488 1.90645 
2.22604 -0.339532 1.90991 
2.22714 -0.344148 1.91336 
2.22823 -0.348767 1.91681 
2.22984 -0.353317 1.92023 
2.23113 -0.357908 1.92367 
2.23262 -0.362475 1.92709 
2.23407 -0.367047 1.93052 
2.17468 -0.0262528 1.67652 
2.17975 -0.0220095 1.67353 
2.18137 -0.00753442 1.66287 
2.18192 -0.0122217 1.66635 
2.17985 -0.0219195 1.67347 
2.18154 -0.0170254 1.6699 
2.22572 -0.229924 1.79961 
2.22578 -0.234674 1.80313 
2.22558 -0.239455 1.80666 
2.22522 -0.244256 1.8102 
2.22417 -0.251489 1.81553 
2.22473 -0.249076 1.81376 
2.22299 -0.238789 1.82797 
2.22188 -0.243687 1.83156 
2.22184 -0.248447 1.83508 
2.22039 -0.255638 1.84036 
2.22093 -0.253319 1.83866 
2.21985 -0.244203 1.86105 
2.21985 -0.248959 1.86457 
2.22015 -0.253677 1.86807 
2.22008 -0.258442 1.87159 
2.24276 -0.388516 1.92479 
2.24473 -0.390466 1.92629 
2.24877 -0.394708 1.92955 
2.16925 -0.0291079 1.67848 
2.1719 -0.0277647 1.67756 
2.26243 -0.418087 1.89621 
2.26726 -0.421629 1.89898 
2.25619 -0.408204 1.91059 
2.26054 -0.411976 1.91351 
2.24954 -0.398737 1.91797 
2.25243 -0.401248 1.91991 
2.21957 -0.284537 1.87631 
2.21972 -0.289274 1.87982 
2.21995 -0.294001 1.88333 
2.22062 -0.298672 1.8868 
2.22095 -0.303385 1.8903 
2.22141 -0.308083 1.89379 
2.22218 -0.31274 1.89726 
2.22294 -0.3174 1.90073 
2.22377 -0.32205 1.9042 
2.22436 -0.326732 1.90768 
2.22527 -0.331372 1.91114 
2.22606 -0.336028 1.91461 
2.2271 -0.34065 1.91806 
2.22824 -0.345263 1.92151 
2.22974 -0.349827 1.92493 
2.23111 -0.354408 1.92837 
2.23263 -0.358972 1.93179 
2.23357 -0.22841 1.74039 
2.23349 -0.233175 1.74391 
2.23346 -0.237936 1.74744 
2.23377 -0.242652 1.75094 
2.23364 -0.247425 1.75446 
2.23308 -0.256205 1.76095 
2.2331 -0.25225 1.75802 
2.2323 -0.249859 1.76142 
2.21907 -0.281916 1.85977 
2.2202 -0.277193 1.85631 
2.21908 -0.281516 1.86067 
2.23477 -0.371383 1.92645 
2.23763 -0.374852 1.92911 
2.24002 -0.379304 1.93247 
2.22886 -0.221009 1.77123 
2.22857 -0.225802 1.77477 
2.22847 -0.23057 1.77829 
2.22856 -0.235316 1.78181 
2.22885 -0.240034 1.78531 
2.22804 -0.247829 1.79106 
2.22814 -0.244881 1.78888 
2.22744 -0.242544 1.79218 
2.17466 -0.0234375 1.68173 
2.1792 -0.0185764 1.67827 
2.17464 -0.0214686 1.68536 
2.18141 -0.00878415 1.67109 
2.17964 -0.0180442 1.67789 
2.18095 -0.0135983 1.67463 
2.22495 -0.221765 1.80084 
2.22512 -0.226498 1.80435 
2.22525 -0.231238 1.80786 
2.22494 -0.236034 1.8114 
2.22435 -0.240864 1.81496 
2.22367 -0.245926 1.81869 
2.22372 -0.245701 1.81852 
2.22362 -0.245328 1.81905 
2.2197 -0.245476 1.86928 
2.22013 -0.250176 1.87277 
2.22002 -0.254946 1.8763 
2.22248 -0.235351 1.8327 
2.22175 -0.240201 1.83627 
2.22179 -0.244951 1.83978 
2.22038 -0.252922 1.84564 
2.22109 -0.249797 1.84335 
2.24277 -0.385881 1.93013 
2.2439 -0.38707 1.93104 
2.24756 -0.39136 1.93433 
2.26267 -0.416756 1.90253 
2.26493 -0.418423 1.90383 
2.2629 -0.415915 1.90767 
2.25637 -0.406574 1.91668 
2.25885 -0.408688 1.91832 
2.16926 -0.0264807 1.68382 
2.17366 -0.0240382 1.68215 
2.24975 -0.397253 1.92417 
2.25059 -0.397979 1.92473 
2.24984 -0.396748 1.92656 
2.25514 -0.402155 1.92796 
2.22005 -0.280972 1.88098 
2.22006 -0.285727 1.8845 
2.22025 -0.290459 1.88801 
2.22075 -0.295151 1.89149 
2.22102 -0.299872 1.895 
2.22178 -0.304532 1.89847 
2.22241 -0.309208 1.90195 
2.22302 -0.313886 1.90543 
2.22378 -0.318546 1.9089 
2.22461 -0.323196 1.91236 
2.22535 -0.32786 1.91584 
2.22622 -0.332505 1.9193 
2.22703 -0.337157 1.92277 
2.22827 -0.341756 1.92621 
2.22978 -0.346319 1.92963 
2.23111 -0.350906 1.93307 
2.23275 -0.355454 1.93648 
2.23418 -0.360027 1.93991 
2.22011 -0.273702 1.86101 
2.21932 -0.280663 1.86614 
2.21942 -0.278546 1.86458 
2.21964 -0.279876 1.87264 
2.23464 -0.367951 1.9312 
2.23436 -0.364264 1.93418 
2.23721 -0.371403 1.93383 
2.23981 -0.375829 1.93719 
2.24235 -0.380261 1.94054 
2.23309 -0.224969 1.74512 
2.23277 -0.229765 1.74866 
2.23249 -0.234556 1.7522 
2.23265 -0.239292 1.75571 
2.2321 -0.2479 1.76206 
2.23254 -0.244063 1.75923 
2.22846 -0.217558 1.77596 
2.22789 -0.222385 1.77951 
2.22757 -0.227181 1.78305 
2.22756 -0.231939 1.78657 
2.22726 -0.240693 1.79304 
2.22783 -0.236661 1.79008 
2.17905 -0.0150931 1.68298 
2.17463 -0.0206048 1.68693 
2.17483 -0.0203865 1.68677 
2.18049 -0.00539801 1.67584 
2.17949 -0.0144723 1.68253 
2.18085 -0.0101078 1.67934 
2.21994 -0.241942 1.87396 
2.22029 -0.246653 1.87746 
2.21999 -0.251447 1.881 
2.24284 -0.383557 1.9357 
2.24295 -0.383687 1.9358 
2.24284 -0.383137 1.93657 
2.24636 -0.388009 1.9391 
2.25013 -0.392285 1.94238 
2.22449 -0.218321 1.80557 
2.22445 -0.223081 1.80909 
2.22456 -0.227824 1.81261 
2.22429 -0.232615 1.81614 
2.22319 -0.240521 1.82196 
2.22381 -0.237431 1.81969 
2.25659 -0.405102 1.92289 
2.25699 -0.405424 1.92314 
2.25663 -0.404847 1.924 
2.2619 -0.409554 1.92634 
2.26295 -0.415622 1.90899 
2.26847 -0.419225 1.91182 
2.27175 -0.398309 1.99852 
2.2222 -0.227128 1.8339 
2.22227 -0.231876 1.83741 
2.222 -0.236667 1.84095 
2.22159 -0.241474 1.8445 
2.22029 -0.249675 1.85053 
2.22134 -0.246262 1.84803 
2.24998 -0.395879 1.93045 
2.25338 -0.398876 1.93277 
2.16927 -0.0238687 1.68918 
2.22001 -0.277475 1.88568 
2.2199 -0.282244 1.88921 
2.22039 -0.28694 1.8927 
2.22072 -0.291653 1.89619 
2.22112 -0.296358 1.89969 
2.22192 -0.301012 1.90316 
2.22243 -0.305704 1.90664 
2.22284 -0.310407 1.91014 
2.22375 -0.315048 1.9136 
2.22447 -0.319713 1.91707 
2.22526 -0.324368 1.92054 
2.22628 -0.328994 1.924 
2.22706 -0.333651 1.92747 
2.22829 -0.338251 1.93091 
2.22971 -0.342826 1.93434 
2.23089 -0.347432 1.93778 
2.23266 -0.351962 1.94118 
2.23384 -0.356569 1.94463 
2.21999 -0.270215 1.86572 
2.21962 -0.275018 1.86927 
2.21965 -0.279839 1.87283 
2.21966 -0.279769 1.87278 
2.23424 -0.362962 1.93479 
2.23448 -0.363492 1.93519 
2.23421 -0.360365 1.93945 
2.23706 -0.36792 1.93854 
2.23939 -0.372379 1.94191 
2.24181 -0.376828 1.94528 
2.23296 -0.216726 1.74631 
2.23233 -0.221563 1.74987 
2.23175 -0.226393 1.75342 
2.23159 -0.231169 1.75695 
2.23141 -0.235947 1.76049 
2.23134 -0.240892 1.76414 
2.23136 -0.24071 1.76401 
2.2313 -0.240568 1.76421 
2.2276 -0.214165 1.78071 
2.22722 -0.218968 1.78425 
2.22677 -0.223782 1.7878 
2.22673 -0.228543 1.79133 
2.22656 -0.23398 1.79535 
2.22665 -0.233309 1.79485 
2.22641 -0.232546 1.79593 
2.17892 -0.0116075 1.68769 
2.17459 -0.0176713 1.69205 
2.17529 -0.0168256 1.69144 
2.22005 -0.238426 1.87865 
2.22023 -0.243159 1.88216 
2.21993 -0.247953 1.8857 
2.17949 0.00273338 1.67709 
2.17926 -0.0020524 1.68062 
2.17931 -0.0107711 1.68708 
2.18025 -0.00668261 1.68408 
2.26313 -0.413973 1.91506 
2.26624 -0.416007 1.91666 
2.24284 -0.380886 1.94102 
2.24571 -0.38459 1.94384 
2.24902 -0.388924 1.94715 
2.25678 -0.403484 1.92899 
2.26014 -0.406275 1.93115 
2.16925 -0.0210186 1.69437 
2.25015 -0.394151 1.93647 
2.25175 -0.395582 1.93757 
2.25031 -0.392706 1.94177 
2.25631 -0.399758 1.9408 
2.22407 -0.210114 1.80678 
2.22391 -0.214892 1.81031 
2.22393 -0.219645 1.81383 
2.22389 -0.224407 1.81735 
2.22364 -0.229194 1.82089 
2.22307 -0.237125 1.82674 
2.22328 -0.233995 1.82443 
2.22004 -0.278724 1.8939 
2.22038 -0.283437 1.8974 
2.22081 -0.288138 1.90089 
2.22126 -0.292838 1.90438 
2.22177 -0.297528 1.90787 
2.22252 -0.302189 1.91134 
2.22296 -0.306889 1.91483 
2.22368 -0.311555 1.9183 
2.22448 -0.316208 1.92177 
2.22534 -0.320855 1.92524 
2.2263 -0.325489 1.9287 
2.22714 -0.330138 1.93216 
2.22822 -0.334757 1.93561 
2.22973 -0.339321 1.93903 
2.2311 -0.343902 1.94247 
2.23267 -0.348458 1.94588 
2.22206 -0.223643 1.83861 
2.22159 -0.228459 1.84216 
2.22147 -0.233231 1.84568 
2.22123 -0.238017 1.84922 
2.22016 -0.246261 1.85529 
2.22109 -0.242791 1.85275 
2.27032 -0.394989 2.00331 
2.22008 -0.266701 1.87042 
2.21949 -0.271531 1.87397 
2.21995 -0.278827 1.87939 
2.21984 -0.276243 1.87747 
2.2342 -0.360069 1.93994 
2.23659 -0.364478 1.94327 
2.23902 -0.368924 1.94664 
2.24139 -0.373378 1.95 
2.23222 -0.213318 1.75105 
2.23165 -0.218147 1.75461 
2.23083 -0.223006 1.75818 
2.23046 -0.22781 1.76173 
2.23041 -0.232917 1.76551 
2.23044 -0.232568 1.76525 
2.23034 -0.23229 1.76565 
2.17907 -0.00808558 1.69238 
2.17462 -0.0151403 1.69747 
2.176 -0.0132326 1.69609 
2.22799 -0.205854 1.78186 
2.22731 -0.210698 1.78543 
2.22669 -0.215532 1.78899 
2.22588 -0.220391 1.79256 
2.22576 -0.226756 1.79727 
2.22584 -0.225153 1.79608 
2.22543 -0.223789 1.79801 
2.21999 -0.234931 1.88336 
2.21987 -0.239702 1.88689 
2.2198 -0.244466 1.89041 
2.2633 -0.412271 1.9211 
2.26402 -0.412786 1.9215 
2.26337 -0.411916 1.92282 
2.24285 -0.37825 1.94636 
2.24514 -0.38116 1.94858 
2.24776 -0.385582 1.95193 
2.16932 -0.0187377 1.69997 
2.16932 -0.0185156 1.70048 
2.1797 0.0062637 1.68177 
2.17845 0.00134745 1.68538 
2.17925 -0.00771448 1.69211 
2.18027 -0.00317583 1.68878 
2.17922 -0.0060359 1.69509 
2.22003 -0.275224 1.8986 
2.22037 -0.279936 1.9021 
2.22076 -0.284643 1.90559 
2.22122 -0.28934 1.90908 
2.22186 -0.294015 1.91256 
2.22246 -0.298695 1.91604 
2.22295 -0.303387 1.91953 
2.22364 -0.308057 1.92301 
2.22432 -0.312725 1.92648 
2.22524 -0.317366 1.92994 
2.22617 -0.322003 1.9334 
2.22699 -0.326654 1.93687 
2.2282 -0.331257 1.94031 
2.22948 -0.33585 1.94375 
2.23093 -0.340421 1.94718 
2.23255 -0.344971 1.95059 
2.25696 -0.401845 1.93507 
2.25841 -0.402993 1.93596 
2.25711 -0.401022 1.93892 
2.26359 -0.407091 1.93915 
2.25033 -0.392477 1.94253 
2.25469 -0.396461 1.9456 
2.26905 -0.391647 2.00809 
2.22194 -0.220155 1.84331 
2.22118 -0.22501 1.84688 
2.22115 -0.229769 1.8504 
2.22108 -0.234533 1.85393 
2.22009 -0.24315 1.86028 
2.22096 -0.239306 1.85746 
2.22016 -0.241489 1.86462 
2.22385 -0.20664 1.81149 
2.22362 -0.211426 1.81502 
2.22369 -0.216173 1.81854 
2.22345 -0.22096 1.82208 
2.22319 -0.225749 1.82561 
2.22261 -0.231827 1.83009 
2.22272 -0.230565 1.82916 
2.22229 -0.227774 1.83301 
2.26548 -0.381594 2.02242 
2.22019 -0.263185 1.87511 
2.21987 -0.26798 1.87865 
2.22001 -0.276505 1.88496 
2.22004 -0.272715 1.88216 
2.22012 -0.275936 1.88772 
2.23417 -0.357212 1.94511 
2.234 -0.355225 1.94639 
2.23627 -0.361015 1.94799 
2.23847 -0.365492 1.95137 
2.24097 -0.369929 1.95473 
2.22896 -0.191205 1.74188 
2.22964 -0.195875 1.74536 
2.23189 -0.205101 1.75225 
2.23176 -0.209874 1.75578 
2.23085 -0.214746 1.75936 
2.23021 -0.219582 1.76292 
2.22965 -0.225906 1.76759 
2.22981 -0.22439 1.76647 
2.22933 -0.222753 1.76878 
2.17462 -0.0124393 1.70276 
2.17648 -0.00966886 1.70076 
2.2196 -0.231478 1.88808 
2.2197 -0.236222 1.8916 
2.21984 -0.240959 1.89511 
2.22764 -0.202397 1.78659 
2.22709 -0.207224 1.79014 
2.22642 -0.212064 1.79371 
2.22504 -0.219924 1.79948 
2.22537 -0.216954 1.79729 
2.24288 -0.375737 1.95179 
2.24441 -0.37775 1.95333 
2.24704 -0.382171 1.95668 
2.25021 -0.386524 1.95999 
2.16936 -0.0163059 1.70546 
2.17094 -0.0151298 1.70464 
2.21982 -0.271747 1.90331 
2.22046 -0.276422 1.90679 
2.22075 -0.281142 1.91029 
2.22123 -0.285836 1.91378 
